# .PCD v.7 - Point Cloud Data file format
VERSION .7
FIELDS x y z
SIZE 4 4 4
TYPE F F F
COUNT 1 1 1
WIDTH 1551
HEIGHT 1
VIEWPOINT 0 0 0 1 0 0 0
POINTS 1551
DATA ascii
-0.1295854 0.04983786 0.9388297
-0.8492162 0.2017857 0.6940045
-0.09640445 0.01306054 0.6701379
-0.149789 0.6531706 0.2392863
0.253405 0.3553052 0.6703704
-0.06530829 0.0265986 0.9952452
0.332237 0.2417493 0.8170702
0.3181164 0.2514563 0.7948628
-0.8831839 0.1751499 0.7236513
0.2131731 0.6954294 0.2578614
0.2371586 0.2886451 0.7401885
0.1670874 -0.2190075 0.7197584
-0.1568389 -0.008776028 1.025779
-0.03774095 -0.298812 0.6582896
-0.8109311 0.06858963 0.7229236
-0.01268298 -0.2874801 0.661405
-0.1607633 0.02023468 0.9839082
0.2421632 0.8595878 0.06872863
0.4453984 0.4090126 0.6998032
0.1706813 0.2046032 0.8240063
-0.2751567 0.02814926 0.9689196
0.1773346 0.1975136 0.8367388
0.1749009 0.2338876 0.7919055
-0.1929941 0.008761902 0.9971837
-0.509762 0.4780666 0.4154304
0.2443767 0.3137414 0.7162198
0.0365263 0.1108778 0.9085326
-0.8962891 0.2597428 0.6305654
0.2423297 0.4310114 0.5765226
0.01007747 0.7299504 0.1920659
0.1852856 0.7862931 0.149158
-0.4757822 0.02276823 0.9537975
0.1358491 0.7711688 0.1626833
-0.8027881 0.1996288 0.6997074
0.3180386 0.2652992 0.7814139
0.2450015 0.2824273 0.7502111
-0.02430314 -0.2971019 0.6619601
-0.2474014 -0.03747452 1.049234
0.3668539 0.308102 0.7453847
0.3131006 0.3074384 0.7328076
-0.161814 -0.00464889 1.022682
-0.4905513 0.00919864 0.9676003
0.2476597 0.2940277 0.729837
0.01293354 -0.07416929 0.7503123
-0.437501 0.5556523 0.3377137
-0.1856916 0.0162943 1.009453
0.3771429 0.4602763 0.569422
-0.02556677 0.5296147 0.4209444
0.2680243 0.2935794 0.7562299
-0.2920451 -0.01996791 1.014398
0.2427032 0.3375481 0.6829433
0.403933 0.3709646 0.7469299
-0.02745658 -0.2826823 0.6407786
0.06143081 0.08326854 0.9428946
-0.4635231 0.5031686 0.3846977
0.4327909 0.4096 0.642493
0.3089698 0.5984681 0.3976297
0.05206932 -0.02321558 0.6647583
-0.3161342 -0.0222504 1.022426
-0.1681406 0.004634072 1.007463
0.3875977 0.5258297 0.4997075
-0.09581308 0.5374316 0.4210237
-0.2011395 0.09879343 0.8762229
0.2582418 0.4879471 0.5194429
0.3690515 0.3957695 0.6387069
-0.3281352 0.0703633 0.8989331
0.2493207 0.2167775 0.8230239
0.05436099 0.09760416 0.9265835
-0.228749 0.01058436 0.9909666
-0.09717432 0.5582683 0.3512205
0.2228709 0.5162191 0.4796213
-0.1547437 0.008174634 0.9854349
-0.3139186 -0.0150251 1.014478
-0.08411777 -0.07432137 0.7351077
0.08022216 0.1220822 0.9024045
-0.009254571 0.6179694 0.3234991
0.1308663 0.7253668 0.2268135
0.1750077 0.2342417 0.7917188
0.1663554 0.5332177 0.4433651
0.02904187 -0.2240689 0.7094523
0.1794946 0.4064973 0.5973959
0.4381792 0.3659213 0.6959418
0.2596252 0.3173985 0.7149223
-0.139731 -0.009873015 1.030605
-0.308694 0.07596592 0.8961691
-0.193025 0.5525777 0.3776499
0.31853 0.5659299 0.4327023
-0.07355402 0.6055368 0.3313563
0.2657974 0.2246688 0.8248743
0.4239013 0.2966464 0.7750665
-0.2021705 0.04266148 0.946776
-0.02647226 -0.2895172 0.6755994
0.01717513 -0.2590923 0.7043164
0.2144029 0.356431 0.6611375
-0.2279559 0.03749301 0.9490543
0.03784371 -0.2134799 0.724395
-0.4398473 -0.1576542 0.6383006
0.2193412 0.2323225 0.8009616
0.2751218 0.264312 0.7766617
-0.3064454 0.02076885 0.9929274
-0.03042694 0.5365514 0.4156723
-0.04195978 -0.2803588 0.6227075
0.4329437 0.4122121 0.6422858
0.1390384 0.6394466 0.3267825
0.1894351 0.1792229 0.8606395
0.01284812 0.09865327 0.9193741
0.2774596 0.2313091 0.8126947
0.2435404 0.5740848 0.410469
0.3768816 0.5902383 0.4503628
0.09475128 -0.1537802 0.7210445
0.2262909 0.2376101 0.7974763
0.3812439 0.6563187 0.3372013
0.194015 0.4003554 0.6065435
-0.001706835 -0.2927264 0.683871
-0.6178242 0.07327405 0.8766822
0.2142411 0.4959227 0.5020499
-0.1671887 0.0111659 0.9996775
-0.9723227 0.3436849 0.5025941
-0.4890029 0.4519943 0.4399964
0.05197746 0.7442983 0.1842455
-0.7851759 0.1376493 0.7751049
-0.489089 0.416981 0.4924641
0.2167212 0.8350445 0.09564251
0.2293896 0.5700781 0.4155556
0.1792723 0.4055689 0.5971622
0.08211828 0.6459695 0.3044159
0.06630142 0.6796607 0.2644375
0.2362169 0.259636 0.7742179
0.2218187 0.4362928 0.5746514
0.2882605 0.2256817 0.8260827
0.3314714 0.3421616 0.6969183
-1.537995 0.743047 0.6907059
-0.7178933 0.1816661 0.7095291
-0.07200199 0.1084503 0.8857174
0.2143312 0.4677294 0.529
0.3043118 0.8221212 0.1181595
-0.0474024 0.5124331 0.44159
0.2713156 0.8487746 0.06969687
0.09091839 0.737375 0.198227
0.2240749 0.8442859 0.08165328
-0.9677423 0.2334287 0.6392856
-0.002930468 0.06279095 0.5525171
-0.1502734 0.6615052 0.2653112
0.03624451 0.7045708 0.2287863
-0.1701457 0.004388607 1.008612
-0.9844164 0.2589481 0.6080418
-0.1563097 0.06278715 0.9153538
-0.7552216 0.2284094 0.6656991
0.1880713 0.8090058 0.1405709
0.09844451 0.7356893 0.2029607
-0.7089338 0.01305458 0.9520943
0.2914214 0.850596 0.09027147
0.2697707 0.6176589 0.368292
0.1918165 0.8266207 0.09596854
-0.6402321 0.1468743 0.7605376
-0.449958 -0.001377236 0.9863496
-0.5339386 -0.03973768 1.009819
0.01096638 0.0921452 0.9233782
-0.2712084 0.01285261 0.9927957
-0.8760819 0.2424423 0.6420659
-0.004290586 0.08203986 0.9109709
-0.8535733 0.1797698 0.7176826
-0.9217939 0.251071 0.6282565
-0.7395748 0.1214283 0.7913317
-0.35456 0.01013514 0.9621179
-0.5976139 0.06142061 0.8666182
-0.6571028 0.05162657 0.8866089
-0.1901367 0.0602423 0.9229723
-0.2677411 0.0943503 0.8753279
0.06969959 -0.06776924 0.7130131
-0.01540383 0.02641358 0.5709488
-0.1403639 -0.007578246 1.042039
-0.1537261 -0.02114048 1.04483
0.189581 0.3431079 0.6725724
0.1888036 0.2275665 0.8007152
-0.2396317 -0.02501236 1.039615
-0.1270465 0.6101314 0.3022205
-0.01207122 -0.2647624 0.6517988
-0.06319843 -0.04260391 0.6780608
-0.03489165 -0.2923589 0.6609631
0.121769 0.4527047 0.5291116
-0.4965975 0.01710063 0.9600843
-0.5759913 0.02161607 0.9417837
0.3191099 0.4977477 0.5070352
0.2314274 0.3814804 0.6363361
0.2737397 0.2493022 0.7911536
-0.3278188 0.5757511 0.3033187
0.3233984 0.5855146 0.4127582
-0.6079799 0.1049821 0.8269938
0.1424361 0.4091727 0.5874483
0.3275299 0.4010162 0.645943
-0.5359454 -0.00297739 0.9965115
0.02210342 -0.2418848 0.7148901
-0.7119665 0.1775679 0.7392566
0.2841134 0.2815724 0.7587643
-0.1942195 0.06875103 0.9309683
-0.3794887 -0.01790913 1.007407
-0.01398466 0.09503651 0.9097317
-0.07568183 0.04016378 0.9751828
0.2736717 0.2499596 0.7915933
0.2172267 0.2837959 0.7425897
0.1930454 0.2551077 0.7713701
0.2849983 0.3043612 0.7322661
-0.01533348 0.04106735 0.5660071
-0.6074347 0.0595466 0.889317
-0.673794 0.09501556 0.8336936
-0.5610337 -0.01766002 0.992448
-0.5679402 5.677494e-06 0.9679897
-0.1395865 0.00801734 0.9909549
-0.9929894 0.2561977 0.6100739
-0.1624772 0.02320189 0.9850662
0.231739 0.3148585 0.7108921
-0.2090455 0.5035524 0.4349316
-0.5337855 0.01503416 0.952862
-0.2695752 0.02145069 0.9752206
-0.6026793 0.05910912 0.8792769
-0.3980386 0.002537586 0.9815223
-0.869863 0.1718384 0.718679
-0.0580666 0.02785345 0.9948102
-0.3582595 -0.0246274 1.018198
0.2117059 0.3490226 0.6679938
0.1342375 -0.02451882 0.6647236
-0.3118634 0.339539 0.601823
0.1958078 0.4158649 0.5898769
-0.07644416 0.04114507 0.9757083
0.1114193 0.8074202 0.1206498
-0.1838722 -0.007199227 1.016671
0.07732399 0.1157672 0.9096993
0.1798406 -0.07915271 0.7375982
0.1974751 0.1977138 0.8356984
0.02928971 -0.08127246 0.7651063
0.2732527 0.4178836 0.6016389
-0.9188845 0.1844894 0.7246329
-0.6035436 0.02424443 0.8974734
-0.02330067 0.06530629 0.9224857
0.4166353 0.3083906 0.7614869
0.1851462 0.4218322 0.5993971
0.302288 0.3707026 0.6634877
0.2406169 -0.1101003 0.6441037
-0.5753247 0.04604566 0.8782103
-0.3836138 0.5505174 0.3125861
-0.7337894 0.05655801 0.8799867
-0.5696889 0.4375521 0.4337216
0.2706537 0.7326184 0.2319403
-0.2327222 0.01405114 0.9803787
-0.003891883 0.6925411 0.2399077
-0.4680585 0.4125482 0.4907411
0.3779908 0.3564173 0.6943834
-0.2359691 -0.02756141 1.035636
-0.3438732 0.0132837 0.9752461
0.1920636 0.8002509 0.143895
0.1447886 0.1504989 0.8818337
0.2461748 0.8135412 0.1358796
-0.1850878 -0.03385449 1.05275
0.3388943 0.5008111 0.4993348
0.1150144 0.5063351 0.4689066
-0.4522351 0.5182255 0.379829
-0.09412716 0.6462935 0.2794137
-0.1050537 0.03389464 0.9650619
0.3322927 0.2400778 0.8151674
0.3210649 0.5303587 0.474172
-0.2889303 0.339181 0.5861828
-0.3666387 0.01481906 0.9678375
0.04557777 0.08487663 0.9426535
0.2528884 0.2349879 0.8048279
-0.1472477 0.5836106 0.3449394
-0.02576035 0.6106687 0.338653
0.1643902 0.4185225 0.5767865
-0.3247871 0.02105083 0.9658489
-0.06807277 -0.01987105 0.678806
-0.2396222 0.02865568 0.9687824
0.2647778 0.3048879 0.7299775
-0.3438629 0.07035072 0.91601
-0.8228495 0.2345751 0.6590459
-0.3125404 -0.009221639 0.9686093
0.2453171 0.7681498 0.1875393
-0.6516464 0.04168241 0.9040787
0.04558924 -0.08460544 0.7570665
0.3032566 0.4236958 0.6007608
-0.6145892 0.1182031 0.8149042
0.2410521 0.4244283 0.5846055
-0.02732914 -0.2614478 0.6323361
0.2277476 0.6800291 0.2917511
-0.5665056 0.0884854 0.8411767
-0.6259094 0.08772928 0.8490456
-0.6422315 0.1287293 0.7966917
0.35956 0.5761116 0.4320723
-0.5697953 0.4426289 0.4544636
0.01928076 0.0709317 0.9526647
-1.083793 0.2277037 0.663683
0.384726 0.3468202 0.7106606
0.2230145 0.231472 0.8000066
0.3353491 0.431525 0.5933291
0.1041223 0.6742896 0.2756259
-0.1546214 -0.01111825 1.023883
0.1494766 0.592607 0.3796583
0.3849932 0.5058528 0.5213694
0.3011576 0.2983927 0.7428904
0.01561775 0.08395185 0.9387988
0.2384415 0.83978 0.09837239
-0.4734139 0.4493562 0.458533
0.1774111 0.1953808 0.8363989
-0.3377272 0.06201909 0.9052195
0.2844776 0.7832044 0.1688125
-0.500174 0.5108072 0.386553
-0.9049965 0.1673752 0.7075889
0.3735321 0.3145947 0.7498114
-0.8308837 0.1347331 0.7827447
0.3326448 0.330119 0.7150933
0.3558499 0.6671964 0.3127619
0.2233393 0.4064454 0.59265
-0.2153947 0.06751923 0.9384263
0.1663327 0.6494188 0.3054242
-0.06909834 0.508989 0.4429246
-0.152334 0.5176442 0.4195761
-0.8734411 0.2748179 0.5987173
0.4213229 0.3907036 0.6618247
-0.009121245 0.5398912 0.4159895
-0.8383802 0.134984 0.7783517
0.3289621 0.5413869 0.4698737
-0.1696195 0.004043998 1.008493
0.1931692 0.4077357 0.5987411
0.246851 0.4556814 0.5401695
0.2311479 0.6253489 0.3626976
-0.4840175 0.05196484 0.9185547
0.1128398 0.7602518 0.1726773
0.08166548 0.5891945 0.4188983
0.3732237 0.3348337 0.7026653
0.3088494 0.4385515 0.574276
0.02275766 0.5107437 0.4507183
-0.08606604 0.06775661 0.9283348
0.06885239 0.5707964 0.3944513
-0.1972986 0.05967 0.9141598
-0.4578187 0.02964963 0.9440961
0.1458831 0.586022 0.3384963
0.1229139 0.4588816 0.5259329
-0.1576369 0.6396939 0.2763721
0.3661318 0.4298067 0.6039917
0.3537948 0.4272645 0.6083104
0.1981705 0.4901625 0.5031317
0.3108788 0.6972447 0.2822348
0.2271148 0.4599485 0.5444545
-0.3936632 -0.01327002 0.9947509
-0.6091909 0.5004159 0.3900939
0.2681687 0.6785198 0.2980806
0.2742179 0.4031093 0.6199054
0.2775922 0.725143 0.2331261
-0.5003909 -0.009830321 0.9749949
-0.5386767 0.4157185 0.4866412
-0.1146052 0.6459757 0.2812388
0.2897954 0.8590709 0.09862441
-0.5553569 -0.002057966 0.9583737
-0.4469414 0.07300687 0.8852957
-0.4326168 0.5851241 0.3202415
-0.2578037 0.567796 0.3654884
0.1888221 0.22786 0.8006545
-0.03407925 0.05815128 0.962828
0.1032841 0.5712693 0.3951271
-0.05101679 0.6018572 0.3282829
0.2604424 0.4810806 0.5271149
-0.02737755 0.0662305 0.9254674
-0.298619 0.07259326 0.9015893
-0.0647849 -0.01645022 0.6729564
0.2181663 0.2591643 0.7715775
-0.1364615 -0.01386614 1.03756
-0.3773591 -0.0065749 0.9981692
-0.05079884 0.6830444 0.2431947
-0.1697254 0.06040923 0.9240202
0.2143933 0.2981924 0.7253371
0.2904909 0.3976996 0.6289088
-0.01653429 0.05715222 0.9628072
0.1451293 0.1530344 0.8760507
-0.2304414 0.530979 0.3645631
-0.2806597 -0.00219283 0.9982866
-0.4018824 0.005757906 0.9831693
-0.5224903 -0.03321725 1.002595
-0.3679377 0.02252498 0.9702793
0.2482464 0.2682571 0.7597054
0.2140025 0.2974125 0.7248918
-0.4450518 -0.02877005 1.014405
-0.5101042 -0.02372593 0.9939476
0.1588162 0.2109085 0.8130756
0.2421621 0.4601177 0.5483603
0.3193678 0.5096804 0.5062651
-0.2391541 0.02863213 0.9690058
-0.03869816 0.03773423 0.9228142
-0.44001 -0.03232013 1.011176
-0.316362 -0.01312275 1.017042
0.437036 0.3543615 0.691954
0.07803985 0.6420197 0.3119192
0.2076681 0.2648408 0.7609501
0.181048 0.1528041 0.8872932
-0.2863729 -0.02000684 1.024795
-0.06364259 -0.2296353 0.6123754
-0.05861618 0.4921724 0.4621131
-0.3530113 0.009008198 0.9832929
-0.4846933 -0.01852605 1.002635
0.1606047 0.1948195 0.8296124
0.1878211 0.2119065 0.8179257
-0.5506679 0.3827159 0.519287
0.3212948 0.5148161 0.4942075
0.1472694 0.3985413 0.5962048
0.2880441 0.2284596 0.8254846
0.3639475 0.3874353 0.6617074
-0.4555589 0.4835438 0.4195616
-0.1039221 0.6241603 0.2408778
-0.302347 0.008655786 0.9900004
0.1874809 0.4594074 0.5290394
0.2119897 0.3453269 0.6688893
0.1992485 0.003815623 0.651224
-0.1117689 0.03923907 0.975875
-0.3136163 -0.01504351 1.014458
-0.3974011 -0.01804169 0.9983128
0.2663506 0.3030643 0.7191527
-0.7370667 0.1384544 0.782859
0.2322763 0.3233784 0.700579
0.1928648 0.2017993 0.8409156
0.3015507 0.4830816 0.529457
0.1663933 0.6402574 0.3364578
0.2066752 0.4308466 0.5747181
0.3935793 0.4081814 0.6498868
-0.22432 -0.00196104 0.9948385
0.3428677 0.5473341 0.4887046
0.259858 0.3162693 0.7150204
-0.4730004 -0.02677225 0.9968399
0.2132137 0.2992174 0.7256712
-0.3545817 -0.03014413 1.018691
0.3929331 0.3568275 0.6666703
-0.349523 0.01695381 0.9768694
0.05979054 0.6793285 0.3084337
-0.2823416 -0.01253041 0.9962093
0.1426561 0.5037518 0.4784625
0.2674102 0.3314668 0.7000806
0.210637 0.3599006 0.6681391
0.2350055 0.3689726 0.6418302
-0.3055183 0.003226665 0.9903951
-0.08833224 0.5205464 0.4241399
-0.563563 0.1075858 0.8317764
0.2299627 0.6002152 0.3738743
-0.02010416 0.5230135 0.431442
0.1801566 0.7268519 0.2298039
-0.1397241 -0.0100725 1.030137
-0.2305219 0.001079719 1.002229
0.3910413 0.3973103 0.6490008
0.1384909 0.6199488 0.3465843
-0.1106253 0.01193506 0.9933375
0.1349424 0.6312346 0.323959
0.2303406 0.4835242 0.5206974
-0.1940471 0.06058846 0.9585454
0.3275423 0.4798983 0.5344152
0.3612043 0.4431305 0.5884748
0.2662231 0.3962895 0.6287876
0.4059124 0.596922 0.4204374
-0.191185 0.5496265 0.3769018
-0.1298128 0.5938404 0.3381876
-0.4179406 0.5760712 0.3241039
0.07913264 0.6401662 0.3125171
-0.6350192 0.09218781 0.8421373
0.1709155 0.4929971 0.4956404
0.2751045 0.6356678 0.3500516
0.2545708 0.4114942 0.6203088
0.2691199 0.2294241 0.814503
0.3817312 0.641192 0.359801
0.1940782 0.4869978 0.500489
0.03288848 0.549678 0.3921205
0.3846218 0.3776603 0.6669956
0.2504689 0.7977383 0.1488195
0.3250977 0.3629959 0.6831033
0.2708789 0.5197377 0.4770962
-0.4275677 0.5244505 0.3747628
0.2272112 0.6190025 0.3524602
-0.4708147 0.06199696 0.8987574
-0.8374606 0.1343628 0.7784618
0.1773652 0.7059298 0.2523823
0.1354098 0.7734252 0.1616981
0.2985536 0.7532815 0.225354
-0.0160228 0.02743787 0.4801346
-0.01608018 0.02369926 0.4816601
-0.9227436 0.2456405 0.6311299
-0.3452252 0.03816809 0.9320583
0.3812384 0.6592318 0.3363218
0.2029562 0.1683198 0.8700155
0.00923323 0.05928177 0.9678815
0.3778792 0.3643178 0.6945206
0.2140428 0.2030292 0.832517
-0.4834416 0.04928006 0.9251274
-0.1788582 -0.02281559 1.041453
-0.5752794 0.06578497 0.887298
0.2246468 0.3840329 0.6325557
0.2950999 0.275601 0.7666294
0.1824644 0.6623003 0.3042007
0.2138192 0.2980863 0.7249607
0.2142524 0.2972037 0.724593
0.1136285 0.4519387 0.53127
0.353506 0.4266201 0.6080787
0.2030968 0.5472209 0.4406593
0.462254 0.2962186 0.7631283
-0.3758863 -0.04252399 1.035808
-0.2067762 0.5201773 0.4137752
0.2076477 0.2653157 0.7605517
-0.9285479 0.3095984 0.5331471
-0.04027677 0.5742097 0.3693242
0.2065414 0.325137 0.6918129
-0.4042375 -0.04174798 1.032213
0.2293205 -0.009533604 0.6499328
0.09854054 0.1552531 0.5492015
0.4578125 0.3912438 0.6536413
-0.004152593 0.5400897 0.4132021
0.01324905 0.4592245 0.5045546
0.150177 0.5671043 0.4053663
0.1132477 0.4777546 0.5144732
0.2758111 0.4192962 0.5907462
0.2052115 -0.006309346 0.6642529
0.2806419 0.5033768 0.5004479
-0.1802946 0.4523589 0.505449
0.1015364 0.6056895 0.3547057
0.2503038 0.2668733 0.7597074
0.2776464 0.5396771 0.4640948
0.1276571 -0.1753818 0.7017819
0.1784803 0.3983219 0.6064842
0.2465245 0.2758176 0.7582952
0.06453469 0.7926911 0.1247716
-0.4965225 0.03422946 0.9334093
0.391846 0.4003201 0.5781864
-0.3828651 -0.01858694 1.009951
0.3249903 0.3852975 0.6387529
0.1742022 0.184029 0.8370309
0.4348039 0.3329342 0.7386312
0.3730195 0.4326986 0.6037895
0.2143692 0.2021847 0.8315635
-0.03657136 -0.2847478 0.6219216
0.4095697 0.3637083 0.6536886
0.07603662 0.1178091 0.910512
0.2877921 0.4615006 0.5556788
0.4202187 0.3894317 0.6624388
0.1565625 0.4408254 0.5330439
-0.1377181 0.5194402 0.3524504
-0.03795845 0.5011465 0.4544386
0.2314895 0.4057611 0.5796284
-0.4420094 -0.03060849 1.013089
0.2506611 0.4633515 0.5455876
0.346406 0.2714879 0.7827045
0.1656561 0.7998425 0.1429913
0.1080639 -0.1696296 0.7205966
0.4235658 0.4299734 0.6076824
-0.3800613 -0.02835847 0.9840465
0.1652063 0.4255506 0.5649671
0.2215718 0.1797621 0.7039068
0.2474318 0.3036594 0.7312853
-0.3282311 -0.03103985 1.029467
-0.0786135 0.5674157 0.367507
0.1778512 0.2076869 0.8214867
0.2658581 0.525946 0.477195
0.2813348 0.2814014 0.7501283
0.338728 0.7114035 0.2724665
-0.3139228 -0.01446257 1.015004
-0.1280928 0.02961439 0.9833856
0.3606877 0.4416595 0.579301
0.0325625 0.684514 0.2542745
0.2305007 0.4174756 0.584264
0.2390257 0.2432168 0.801084
0.2632988 0.844612 0.1038722
0.1949515 0.763933 0.1809902
0.1620787 0.3696558 0.6355628
-0.7049702 0.1177727 0.8044248
0.0912972 0.7870614 0.1429213
0.2650951 0.2153132 0.8333495
0.3173901 0.6908569 0.2865258
-0.005199645 0.5930887 0.3600318
0.199482 0.4678706 0.5224753
-0.1704739 0.004383841 1.007898
0.2158696 0.7410226 0.2145225
-0.4233401 -0.03123762 1.012831
0.3095167 0.2303816 0.8235162
-0.2154437 0.5180186 0.4107188
0.2732452 0.2503394 0.7909688
0.3767342 0.3554181 0.694104
-0.2370968 0.02003138 0.9838031
-0.1716343 0.06372027 0.9258212
0.3565048 0.7665769 0.2021564
0.3566493 0.7654346 0.202575
0.3316674 0.2410398 0.8170691
0.2467468 0.3673722 0.6539021
0.1098762 0.8009623 0.1266402
0.2330009 0.8428034 0.08772168
0.2507537 0.3240531 0.6403168
0.06281643 0.7264739 0.2105109
0.1132575 0.4634707 0.5174174
0.2231554 0.3493904 0.6691338
0.1133768 0.4646542 0.5166029
0.2113815 0.560728 0.427015
0.228163 0.5258105 0.4662444
0.08639067 0.4599726 0.5164944
0.3383981 0.2801057 0.7805318
0.02325787 -0.2182922 0.710987
-0.004977835 0.6624244 0.2723674
-0.2191922 0.4137217 0.5255969
-0.3102737 0.01817083 0.9631233
0.353696 0.6666258 0.3244087
-0.4291992 0.01215459 0.9531422
-0.5999792 0.01314769 0.9278644
-0.02425571 0.01378746 0.4806532
0.377802 0.4689181 0.5546983
0.2949337 0.3101395 0.7290836
0.3175157 0.2660991 0.7837706
0.2661898 0.3132916 0.7210318
0.1624142 0.3626635 0.6379713
0.3935972 0.3330706 0.7228501
0.2922567 0.2593673 0.7864991
-0.3016889 0.008386658 0.9894572
0.2037289 0.3113393 0.7090106
0.256646 0.3312483 0.6994897
0.181011 0.3221499 0.6934059
0.1511783 0.5383836 0.4417896
0.08781234 0.4004231 0.5656533
0.3383931 0.3489782 0.6689823
0.02271609 0.4062981 0.5361595
-0.0880145 0.005587198 0.5486552
0.3254752 0.3081931 0.745304
0.1705203 0.4940031 0.495875
-0.5116773 0.4096066 0.4992982
-0.475306 -0.02504721 0.9972575
0.1496074 0.5693772 0.4055361
0.1929567 0.4953373 0.5011575
0.3914475 0.3970121 0.6497343
0.4027679 0.3357039 0.7318085
0.2153298 0.1659801 0.8756228
-0.2562497 0.005484936 0.993548
0.1743771 0.2322553 0.7936265
0.3030865 0.4156612 0.6006811
0.2266289 0.5197439 0.4740524
0.2100191 0.3736526 0.6349164
0.2786505 0.3357892 0.7034348
0.361306 0.4005398 0.6407073
0.1988842 0.1865087 0.847346
0.2949208 0.4821594 0.5471495
0.2332562 0.3735789 0.6423426
-0.1791603 0.5721861 0.3601334
0.2009761 0.3326505 0.6866932
0.03869882 0.5449322 0.4374848
-0.4021798 -0.04337502 1.030135
-0.09450918 0.007815967 0.9990641
0.3520501 0.303978 0.7475846
0.1425613 0.2037733 0.8171047
0.4061134 0.3593846 0.690698
0.3063312 0.3926216 0.6229644
0.2484282 0.2728745 0.7611688
0.1578964 0.4247806 0.5699355
0.1569091 0.7420888 0.21517
0.2325858 0.3263214 0.7018942
-0.134424 0.5478292 0.3880796
0.02345863 -0.265142 0.6999677
-0.08677063 0.5187746 0.4254599
0.3847028 0.3432409 0.7166308
-0.03618338 0.5230125 0.406743
0.3073438 0.4016384 0.6229456
0.2421458 0.4264913 0.5837397
0.1758735 0.6265712 0.3446255
0.1941417 0.6864166 0.2753475
0.1765027 0.1551431 0.8791568
0.4093187 0.3869926 0.7353065
0.01362727 0.5761594 0.3720581
0.05511348 0.5344816 0.4234776
0.3064878 0.3491374 0.685371
0.2076815 0.4747656 0.5225244
-0.2936485 0.01895262 0.9767915
-0.01023867 0.7201772 0.2100546
0.2265947 0.3478707 0.6675048
0.3057814 0.2780542 0.7643158
0.438181 0.5130606 0.5195555
-0.3351741 0.01059765 0.9911402
0.1800644 0.2466503 0.7498506
0.3254963 0.403766 0.6299535
0.01268078 0.4619629 0.5055107
-0.0745113 0.5727113 0.3556735
0.08645253 0.4289865 0.5529255
0.1055143 0.4735104 0.506504
0.1452957 0.3577529 0.6454608
0.1942602 0.4317824 0.5730207
0.3131076 0.3827138 0.651696
-0.08030959 0.06956354 0.5872435
0.2126996 0.3465378 0.6669227
0.2985068 0.2369659 0.8114256
0.3497655 0.3818052 0.6585153
-0.3471904 0.2952074 0.6391938
0.08026881 0.6651088 0.2828681
0.4047872 0.3552158 0.7142149
0.1848663 0.176438 0.8629904
0.2135866 0.2883646 0.7259206
0.268893 0.3839921 0.6395639
0.1495655 0.3044546 0.6600451
0.2818547 0.2967713 0.7416886
0.03999824 0.07640307 0.8722124
0.210758 0.5609516 0.426789
0.1017856 0.4909705 0.4938862
0.1854175 0.2033295 0.8272286
0.1832323 0.3773275 0.6356559
0.1805421 0.3723818 0.6366844
-0.3752414 -0.04294029 1.035094
0.1434193 0.4095476 0.5888944
0.2135162 0.3381784 0.6666598
0.1784684 0.4572396 0.5279019
0.1761513 0.5122494 0.4725485
0.2312291 0.2825877 0.7340866
-0.5125536 -0.01994558 1.00298
0.2579593 0.2939471 0.7391725
0.3483937 0.4048102 0.6282953
0.3919057 0.3757933 0.64822
0.1958963 0.2797227 0.7452961
-0.02648726 0.517656 0.4128393
0.2737188 0.2499973 0.7912852
0.1889168 0.2326449 0.7710173
0.1296964 0.4161179 0.5761432
0.3485417 0.3090348 0.683288
-0.2288456 -0.01210047 1.020468
0.3962569 0.373421 0.6680009
0.178188 0.1941291 0.837469
0.2774021 0.2315649 0.8132937
0.1398852 0.2125657 0.8077314
0.2374313 0.2463038 0.7890083
0.3010284 0.3292839 0.7099205
0.2996174 0.4600606 0.5605316
-0.5978001 -0.02289963 0.9961001
0.2087615 0.258744 0.7670792
0.2305105 0.2899475 0.7371277
-0.4622572 -0.01754335 1.026323
0.2117256 0.3481054 0.6685442
0.2249688 0.2189792 0.815989
0.2519309 0.3131248 0.7164516
0.3671369 0.3094212 0.7456541
0.2533846 0.3349456 0.69287
0.2682481 0.3845918 0.6400187
0.2347883 0.4554163 0.5514376
0.2464671 0.5202715 0.4781353
0.1819534 0.5499967 0.432535
0.3086352 0.2776175 0.772458
0.2346781 0.4561518 0.5511655
-0.08282351 0.07022136 0.9274136
0.1892164 0.1372153 0.9025136
0.3091508 0.2951078 0.75042
-0.1283361 0.5880796 0.3396436
0.1428742 0.2029807 0.8168163
0.4021932 0.4245201 0.6225856
0.2350091 0.2920432 0.7385234
0.2490321 0.3276174 0.7002571
0.2668049 0.2923417 0.7429537
-0.02060275 0.08082439 0.5530816
0.2176461 0.2209144 0.8112072
0.2077125 0.3203292 0.7005446
0.2983294 0.236961 0.8117066
0.3094261 0.2936008 0.7506652
0.2306359 0.242347 0.7926946
0.1449276 0.7377584 0.2087155
0.04397725 0.5667604 0.3813377
-0.2835994 -0.0459402 1.061901
0.3566187 0.4643354 0.5693728
-0.1499585 0.4515091 0.4914297
-0.349195 -0.04088041 1.037849
0.4456393 0.391737 0.6685074
0.2876294 0.3537589 0.6791912
0.2665223 0.279744 0.7574862
0.2656853 0.3644417 0.661016
-0.05699388 0.00825644 0.6181555
0.2323004 0.3026356 0.7249222
0.3169808 0.3025602 0.7438319
0.357138 0.4178317 0.6142478
-0.1721312 0.4966953 0.5067754
-0.009169197 -0.2641968 0.6995009
0.1097982 0.5180002 0.4544351
0.1904701 0.2702266 0.7517192
-0.6129506 0.008705252 0.9351459
-0.2706237 0.01050724 0.9923081
-0.3850017 0.03641349 0.9573261
0.2059057 0.4259922 0.5801317
0.1709683 0.1802493 0.8506376
0.1777852 -0.09590209 0.6709663
0.2058014 0.7343244 0.2240582
-0.005674214 0.03531164 0.5729639
-0.4152527 0.05845857 0.921271
0.2015193 0.3332777 0.6831159
-0.2175919 -0.03837537 1.055634
0.203454 0.2609153 0.7666795
-0.6573928 -0.00826749 0.9610843
-0.1729771 0.4795366 0.4458795
-0.4005443 -0.03473371 1.022189
-0.2289653 -0.01310855 1.020438
0.2694469 0.3352384 0.6972311
0.2482417 0.5012056 0.5017704
-0.03163392 0.6339613 0.3012134
0.1198595 0.7577899 0.1809153
0.3237453 0.3704909 0.6674184
-0.004628462 0.7633422 0.1585348
0.07855733 0.5300846 0.4392214
-0.1621867 0.02306342 0.985252
0.190741 0.3407948 0.6720622
-0.09582423 0.05076773 0.9593992
-0.3399927 -0.03361946 1.029303
0.1863117 0.2502529 0.7735648
0.2268314 0.2525817 0.7800189
0.02680204 -0.2205508 0.7097539
0.0414779 0.6771539 0.2842332
-0.00170754 -0.290067 0.6760328
-0.05850428 0.5922621 0.3477316
-0.3931812 -0.04843432 1.049732
-0.3242874 0.0009323752 0.9852824
0.03176866 0.6105367 0.338508
-0.5170518 -0.01621709 0.9882026
0.1782785 0.2500916 0.7501957
-0.1844336 0.4589464 0.4842532
0.2550716 0.3659311 0.651987
0.08636985 0.4741085 0.4996543
-0.442044 0.3762817 0.5886451
0.2684659 0.3855054 0.6397895
0.1264892 0.6302738 0.3298397
0.1877876 0.2129557 0.8177604
-0.1843297 -0.03245907 1.064378
0.1118316 0.4169309 0.5774524
-0.4264641 -0.03069945 1.01574
0.2182807 0.5797498 0.4063916
-0.09290464 0.5013245 0.4554411
-0.5847278 0.3598408 0.5581066
-0.4715123 -0.01177376 0.9834942
-0.4235325 -0.04993229 1.038236
-0.1683937 -0.03426675 1.03254
0.09461986 0.1134778 0.9174621
0.2115892 0.3000841 0.7203327
-0.06900202 0.02979906 0.9932952
0.257984 0.293872 0.739481
0.1167171 -0.1740231 0.7627709
0.3014224 0.3034078 0.7399729
0.3286614 0.51868 0.4976923
0.4237203 0.3333681 0.7230576
0.1764867 0.3793028 0.6255781
0.0934353 0.5090946 0.4640712
-0.5845198 0.02033217 0.9514345
-0.09068777 0.5245205 0.4199017
0.2530201 0.1951012 0.8508492
0.243447 0.2406891 0.7969578
0.1651875 0.3004439 0.7082226
0.2310561 0.164066 0.8829447
-0.02944856 0.0464547 0.5745965
0.2085127 0.257035 0.7660664
0.2010351 0.0008631422 0.6672642
-0.02128877 0.03187142 1.000941
0.1695744 0.3099443 0.698319
-0.1149805 -0.02118462 0.5692699
0.02066192 0.08355055 0.9374897
-0.1452827 -0.02327602 1.027447
0.05424808 0.07313663 0.9639761
-0.3687515 -0.0128658 1.004591
-0.1129887 -0.00160212 1.033366
0.3445974 0.4472567 0.5836949
-0.02825676 0.04479825 0.9395397
0.1444117 0.1474954 0.8792105
-0.4435357 0.04546222 0.9225343
0.2331994 0.3486464 0.6747966
-0.1672948 0.02781852 0.9915926
0.2591061 0.3416382 0.6879437
0.004417259 0.06542162 0.9709969
0.1322288 0.6402311 0.3223269
0.1005677 0.5715461 0.3948658
-0.3407152 0.01739901 0.9720044
0.2063928 0.3304397 0.6942217
0.113757 0.09567292 0.9351023
0.1781537 0.23794 0.7520142
0.1147085 0.07260405 0.570443
0.1708399 0.107661 0.8197083
-0.1260939 -0.007124552 1.005665
0.3079997 0.428149 0.5930055
0.0260964 0.06286722 0.9646735
-0.1119708 0.05508455 0.9526641
-0.1047373 0.02592208 0.9952434
0.2739209 0.5727069 0.4198676
0.258637 0.4970444 0.5509874
0.2003769 0.7298471 0.2371587
-0.2884902 -0.009909943 1.014064
-0.5415347 -0.07377709 1.013134
-0.2952796 0.5458236 0.370227
-0.2271939 0.5350065 0.3639022
-0.1242153 0.05828032 0.9367499
0.09296571 0.4459915 0.5327007
-0.1708933 -0.03365137 1.063837
0.2664055 0.3113203 0.7208254
0.2647193 0.5428774 0.4558724
0.2917279 0.3524341 0.6853688
0.4231157 0.4308153 0.6075635
0.2852463 0.3419556 0.6927711
0.08680315 0.5484195 0.4359268
0.1554856 0.3645964 0.6334292
0.2522652 0.3270507 0.7000923
0.1705656 0.5352243 0.4466849
0.2880003 0.538203 0.4660872
0.3226561 0.3032182 0.743252
0.2057859 0.6292024 0.3467697
0.1977451 0.2525347 0.7732487
0.331338 0.49617 0.5236933
0.1749731 0.0340225 0.6154444
0.1810579 0.02746018 0.6244381
0.05167026 0.06473638 0.9676632
0.2437936 0.4011324 0.6158233
0.047549 0.6311867 0.3171248
-0.1712514 0.6172312 0.3084835
0.1685887 0.361513 0.6451679
0.008154527 0.06050023 0.9663449
-0.2137243 0.4757951 0.4596855
-0.1287058 0.5842774 0.3452004
0.08739147 0.6474009 0.3056088
0.166798 -0.01335781 0.7681589
-0.0330662 -0.02985457 0.7892196
-0.2104284 0.5224607 0.3387641
0.2902048 0.3358759 0.6992803
0.2314261 0.260596 0.7711487
0.2267816 0.5292975 0.4657767
0.2527603 0.4505326 0.5617871
0.3065642 0.4136068 0.6141576
0.1713052 0.5980929 0.3757186
-0.01214194 -0.0632857 0.768955
0.006374981 -0.1976717 0.7239079
0.1615968 0.1805213 0.8488845
0.09602396 -0.1344045 0.7922906
0.0008608732 -0.2884533 0.6765774
0.2192915 -0.1416482 0.6702056
0.2034505 -0.003254098 0.6661901
-0.1620871 0.595718 0.3260806
-0.04870959 0.03646558 0.9229115
-0.03914391 0.503283 0.4549646
0.1148157 0.3942927 0.5950401
-0.4003709 -0.03454479 1.021822
0.1350733 0.5506489 0.4232882
-0.4014858 -0.06364476 1.034301
0.2969458 0.3185845 0.7204724
0.1762589 0.1912508 0.8393296
0.1795427 0.4056676 0.5976656
0.05622556 0.6035439 0.3520205
0.1558394 0.4124747 0.5818056
-0.4413128 0.1188016 0.9855072
0.170403 0.3573824 0.6446365
-0.5961497 -0.0151234 0.9798476
0.2286255 0.3173859 0.7081954
0.007661369 0.06030622 0.9678042
0.1928273 0.4084056 0.5989212
0.1942796 0.6767411 0.2774963
-0.1338996 0.598303 0.3339753
0.2562299 0.4055307 0.6136506
-0.6528645 -0.009856138 0.9590651
-0.4531263 -0.04694027 1.031584
-0.1288163 -0.009842389 1.040639
-0.4526142 -0.04732955 1.030727
0.2152225 0.3221269 0.6966651
-0.04105934 0.6493543 0.2850876
0.3274009 0.4486406 0.5777866
0.0470522 0.7101617 0.2293273
0.1344196 0.6407408 0.3219083
0.4144849 0.3497565 0.7049486
-0.2436691 0.4618146 0.4704661
0.1640602 0.6993305 0.2568283
0.3390534 0.3071677 0.6867467
0.1486014 0.1439879 0.888235
0.1172101 0.574981 0.3937818
0.02880792 0.7522559 0.1760219
0.0461624 0.7328088 0.2012217
0.2234608 0.3963644 0.6148427
0.2604488 0.2163216 0.8236474
-0.3124472 -0.01722807 1.014374
0.1882081 0.2128854 0.8178078
0.3171878 0.3025268 0.7434139
0.1970591 0.2773771 0.7438983
0.3880051 0.3741649 0.687833
0.266726 0.2959079 0.7393118
0.1848912 0.294454 0.7242628
0.1446702 0.1535639 0.876083
-0.4923258 -0.03877198 1.01255
-0.5554403 -0.08903281 0.9998366
0.186475 0.2890509 0.7226676
0.07962964 0.1212981 0.9025955
0.08150434 0.08308406 0.9469942
-0.04390422 0.06793652 0.576006
-0.4913434 -0.04126632 1.012392
-0.3731752 -0.09125989 1.068699
0.3141106 0.3537801 0.6937116
-0.02237507 0.03314144 1.002248
0.2362668 0.5736806 0.4177489
-0.2827508 -0.0636979 1.097827
0.08085117 0.1180924 0.9001314
-0.3776604 -0.08827364 1.072148
0.1985493 -0.01671928 0.6761649
0.1149458 0.2484289 0.8399364
-0.1508007 -0.02277071 1.053669
-0.02358195 0.5270653 0.4203283
-0.241384 -0.02520113 1.036743
0.1663157 0.3513524 0.6367598
0.1923085 0.3025703 0.7180271
-0.05538648 0.6271304 0.3084291
-0.1308579 0.519262 0.4244332
-0.07489987 0.02201677 1.023961
-0.03413553 0.668975 0.2573507
0.1674164 0.3857142 0.6235289
0.1394033 0.1898953 0.8315231
-0.2207302 0.6128737 0.397482
0.3351448 0.3078947 0.7415028
-0.01686586 0.06410472 0.9401991
-0.6980101 0.05073833 0.900945
-0.2124714 0.4739632 0.4833449
0.1337864 0.6892473 0.2652697
0.1953029 -0.02372683 0.6977869
-0.1057402 0.4764171 0.4719849
0.366877 0.3660821 0.6877379
-0.2182816 0.04085052 0.9594795
-0.128909 0.6147332 0.3121019
0.2486998 0.2182299 0.8243214
0.02119367 0.07523233 0.9490627
0.2361622 0.191587 0.851378
-0.5808644 -0.03264685 0.9873697
-0.4328658 -0.03178459 1.015637
0.1510016 0.1906901 0.8371616
-0.5236465 0.008659972 0.9662958
0.1678834 -0.1523644 0.7371657
0.2662815 0.3961624 0.6288114
-0.2044403 -0.04620221 1.067417
-0.06072942 0.01830467 1.006056
0.08516066 0.4775923 0.4998995
0.1978188 0.6179031 0.3585533
0.09060049 0.5336539 0.4375619
-0.1530245 0.5789872 0.3376878
0.2793953 0.3292217 0.7080522
0.1634132 -0.003636615 0.7728947
0.04488612 0.05650695 0.9774253
0.1417466 0.1835601 0.8400025
0.181384 -0.05431259 0.7238916
0.305953 0.2873738 0.7579688
0.2311791 0.1620739 0.8821168
0.2809629 0.2862197 0.7523226
-0.1543255 0.003710474 1.00625
0.1100197 0.0874349 0.9551692
0.4280739 0.3978628 0.6687946
0.01192098 -0.1649451 0.7488288
0.02163211 0.086234 0.9359383
-0.06650613 0.03960571 0.5171504
-0.03173879 0.01404462 1.020709
-0.03025926 0.06608475 0.9252587
-0.3649678 0.5442744 0.3643083
0.1496402 0.5133028 0.4679878
0.3464028 0.2756619 0.7851706
0.3781838 0.4760374 0.5684675
0.02937124 0.03984911 1.001372
-0.2738179 0.02073772 0.9779464
-0.08808238 0.4920685 0.4556015
-0.002842019 0.4241363 0.5358627
-0.2029351 -0.01173106 1.028506
-0.004415886 -0.2445699 0.7150137
-0.00274613 0.6423154 0.2973658
0.212098 0.3003747 0.722855
0.3336093 0.5175632 0.4848391
0.124044 0.3529048 0.6393217
-0.008150893 0.02277963 1.018193
-0.3932592 -0.03421524 1.02563
-0.1457721 -0.04554042 1.093155
0.1443601 0.4769306 0.5105138
-0.2621497 0.02119722 0.9806146
0.1106841 0.4780121 0.5288352
-0.05177477 -0.001567319 1.042611
0.1009634 0.09538809 0.9398793
-0.2702444 0.5690493 0.3363973
-0.1287951 -0.008932598 1.040085
-0.1468598 -0.05613589 1.098276
0.0002213905 0.6638732 0.2714165
0.09797706 0.6353152 0.2974424
-0.05183037 -0.001582709 1.041742
-0.02378175 -0.04190318 0.7216444
0.1793551 0.2463263 0.7488036
0.317202 0.3260656 0.7187462
-0.05094783 -0.001213176 1.042266
0.03038586 -0.1585519 0.7690872
-0.5571339 -0.009700226 0.9880854
-0.2726264 -0.03793978 1.051786
0.3060418 0.2867593 0.7571049
-0.05069404 -0.001781403 1.041301
-0.1798248 -0.04669874 1.088722
0.32372 0.3694438 0.6674687
0.1819856 0.3500157 0.6591177
-0.3164191 -0.02258445 1.022159
-0.2447188 0.01788989 0.9625968
0.1087424 0.555818 0.4053828
-0.03941038 0.6941944 0.2315075
-0.1240738 0.007650503 1.042799
0.02581877 0.4505352 0.5303341
-0.1220156 -0.09039792 0.5835449
0.2028643 0.03176733 0.68799
0.3138424 0.4555709 0.5683479
0.2484602 0.4454826 0.5537301
0.1636872 0.362225 0.6432394
-0.471367 -0.03761298 1.019676
-0.1016283 0.549748 0.3872753
0.2117859 0.4771206 0.51261
-0.312225 -0.02210608 1.021947
0.1648653 0.6614105 0.302809
0.1084147 0.2241061 0.8665343
-0.2292665 0.5400817 0.3572204
0.06203779 0.08459244 0.8831896
-0.1778609 0.477849 0.4436208
-0.07048602 -0.2336115 0.6389289
0.2445763 0.3506938 0.6743733
-0.415971 -0.00470946 0.9905124
0.08587775 0.2882838 0.6172771
-0.3453436 0.3202501 0.629841
-0.3082196 0.01424516 0.9748848
0.1619145 0.3637836 0.6407635
-0.2531067 0.5427639 0.3586611
-0.04639063 0.4897479 0.4918408
0.07384556 0.4160282 0.5648245
-0.3529382 -0.028834 1.020768
0.09506693 0.619395 0.3384466
-0.4184343 0.3483025 0.6235647
0.2701132 0.6043227 0.370502
-0.2801154 0.5890655 0.3503305
0.1245202 0.6963494 0.2568518
-0.3758096 -0.02876345 1.022264
0.2807921 0.2839679 0.7517164
0.2542986 0.3697007 0.6522816
0.1022061 0.5905126 0.401381
-0.2058869 -0.004557653 1.048457
0.3249432 0.4042411 0.6298514
-0.1851507 -0.03349921 1.05283
0.05112077 0.06658591 0.9566047
0.2939602 0.3461653 0.6936462
0.2349179 0.2918689 0.7380701
0.04313526 0.6624321 0.2831908
-0.6853424 0.01180848 0.9333276
-0.6876518 0.01325947 0.934299
0.3195685 0.4877802 0.5297942
0.2924719 0.2177812 0.8262131
0.08547039 0.4754517 0.4999698
0.214936 0.3223182 0.6963711
-0.01240199 0.09959377 0.9223205
0.01126244 0.5852568 0.3625919
0.256403 0.5766494 0.4150079
0.3318842 0.4319765 0.6014928
0.2942233 0.5639864 0.4331211
0.3117644 0.5369366 0.4683732
0.1983206 0.6974699 0.2575977
-0.1595212 -0.03307607 1.065214
-0.1705846 0.4772112 0.4732373
0.1354871 0.4820798 0.5017682
-0.2964978 0.01249059 0.9817092
-0.4432964 -0.0222993 0.9988348
-0.5306271 0.464589 0.4462034
0.04141193 0.1132307 0.9041016
-0.1153886 0.07466076 0.9208893
0.3514395 0.433583 0.5931853
-0.01810394 0.7140847 0.2144727
0.1656759 0.4770901 0.5338079
0.1585874 0.1016995 0.9130242
0.07838358 0.3954491 0.5847194
0.1554014 0.4413868 0.5518728
0.2015386 0.5340691 0.4508858
0.001934125 -0.04752597 0.7179227
-0.774087 -0.02206611 0.9460502
0.1795843 0.2510685 0.7532467
-0.1346552 0.005221043 1.014492
-0.1074713 0.004468649 1.017797
0.2817033 0.327498 0.7059253
0.3273914 0.5565047 0.4700469
0.2766794 0.5119122 0.4949723
-0.2056764 -0.0740382 1.10868
-0.1602539 0.4957127 0.4410681
0.08839608 0.1031056 0.9306788
0.3779804 0.4580994 0.5677057
-0.2153398 -0.04264196 1.065255
-0.3609609 -0.09771388 1.066871
0.01832134 -0.2121148 0.7141853
-0.1230854 -0.03374424 1.069901
-0.5485264 -0.03534625 1.001746
0.01732134 -0.2068464 0.7256207
0.1803062 0.2464963 0.7501787
0.2283985 0.4923497 0.509056
-0.256277 0.02858025 0.976645
0.1977148 0.3699275 0.6410553
0.1376677 0.1067482 0.9345117
-0.3733545 -0.09175781 1.107494
0.09179239 0.07660892 0.9661695
0.08369251 0.07684492 0.9631241
-0.1034674 -0.04779962 1.094651
-0.06871467 0.03256343 0.9900607
0.009850905 -0.06328619 0.7481713
-0.003496913 0.4269198 0.5360613
-0.2160097 -0.06858224 1.099453
0.2121046 0.6871021 0.287289
0.2003589 0.1863812 0.8465697
-0.1491413 0.6191406 0.3037089
0.1585252 0.1031186 0.9125352
-0.05079564 -0.003739991 1.041708
0.136307 0.1081852 0.935808
-0.1645667 -0.05865943 1.099541
-0.3143395 0.02959285 0.9630297
-0.2046767 -0.0463107 1.067471
-0.1281344 -0.009487232 1.038709
-0.172994 -0.006690257 1.021538
0.0149099 0.4578684 0.5045084
0.4295502 0.4092959 0.668309
-0.3772532 -0.07348549 1.071999
0.008313365 -0.2230719 0.710248
0.3842676 0.3303797 0.7165171
-0.02952574 -0.004345112 1.049289
0.07809442 0.1200002 0.9046243
-0.797268 0.03742615 0.8523687
0.1471329 0.1681878 0.8605602
0.4157016 0.3612421 0.7078776
-0.1043135 0.6245756 0.2403719
0.2612961 0.4561312 0.5489389
0.2490432 0.2701091 0.7600008
-0.05045411 -0.002907496 1.041558
0.1349201 0.4783023 0.5023518
-0.03940935 -0.009390027 0.9599791
-0.03156349 -0.2554832 0.6367748
-0.2325177 -0.0307337 1.043865
-0.05820746 -0.04047986 0.6952744
0.1645764 0.6646386 0.3021199
0.1140962 0.5807415 0.3918696
-0.4637407 -0.04099579 1.016303
-0.0995326 0.01350223 1.003965
0.3098028 0.3355677 0.7025006
0.1072733 0.1017016 0.8585131
0.2531779 0.3430305 0.6940933
-0.008391501 0.6016905 0.3582837
-0.4637476 -0.05483645 1.036955
-0.2255708 0.5390385 0.4070864
0.09700636 0.08363128 0.5453081
-0.6035762 -0.08217012 0.8618972
-0.4573215 0.008549045 0.9746533
-0.3676512 -0.08062666 1.092786
0.3722302 0.4192179 0.6074708
-0.242521 0.03179483 0.9706998
0.3505014 0.4344892 0.5928073
-0.4041492 -0.09322099 1.066921
0.1717349 0.3421535 0.6897703
0.2392436 0.3084084 0.7167435
-0.04543408 0.6611384 0.2709158
-0.229787 0.00783278 0.9892991
-0.1649841 -0.02853012 1.066197
-0.1392819 -0.03200252 1.04902
-0.2735296 -0.03846722 1.051193
-0.4686984 -0.02281071 0.9975293
-0.5789881 -0.03859105 1.001218
-0.1847999 0.596285 0.3258376
-0.3594543 -0.01317546 1.006979
0.1862486 0.5340272 0.4519162
-0.5325795 -0.009548602 0.9788888
0.07289495 0.5185624 0.4473297
0.1030285 0.7401134 0.1945796
0.1460954 0.5273649 0.454968
0.1348865 0.7027637 0.2538028
-0.06141013 0.6507303 0.2803258
0.396014 0.3920958 0.6696461
0.3858854 0.4836489 0.5284967
-0.2055185 0.001482814 1.003086
0.2289651 0.2721577 0.7582279
-0.6576948 0.3577791 0.5405285
-0.4442274 -0.02126889 0.9998785
-0.4249305 -0.03137235 1.014822
0.1962993 0.4140212 0.5898982
-0.3343875 -0.03429768 1.042374
0.2213857 0.4278548 0.5695373
0.1787889 0.3954298 0.6056406
-0.1138607 0.6387652 0.2709401
-0.1358499 0.04554738 0.964181
0.1410582 0.2098331 0.8061566
0.1793209 0.3238927 0.6849318
0.1602712 0.1967068 0.8304644
0.3036834 0.3079318 0.733109
-0.3631365 -0.0689109 1.080911
-0.2708505 -0.03954043 1.049855
-0.33786 -0.04337928 1.065091
0.3311909 0.3351018 0.713318
0.1782079 0.3341766 0.6528819
-0.2666909 -0.04269653 1.051419
0.2002983 0.160946 0.8778931
0.2920197 0.339468 0.6795942
0.1258386 0.1665269 0.858999
0.2334496 0.416474 0.5932261
0.03917826 0.5206251 0.4352455
-0.8068231 -0.04498672 0.9218655
0.05382526 0.04174888 0.9991531
-0.1714832 -0.06427667 1.103764
-0.7615122 0.00499148 0.9447767
-0.8108247 -0.06014322 0.7931711
-0.5700911 -0.02664504 0.9783008
-0.3750068 -0.09346101 1.066996
-0.05028268 0.6823915 0.243434
0.321021 0.52816 0.4744577
0.1440193 0.1353256 0.8979596
-0.9089847 -0.008222559 0.8730277
0.1414269 0.7468554 0.2057636
0.08422624 0.06931082 0.9743671
-0.07614063 -0.02983726 1.075433
0.04740506 0.07333623 0.9614271
-0.1915845 -0.05456001 1.086459
-0.1709816 -0.0646112 1.102882
-0.7792303 -0.05098403 0.9962822
-0.5473428 -0.09015739 1.023928
-0.2524598 -0.0839666 1.108282
0.06233746 0.7429082 0.1963026
0.2487433 0.2727576 0.7609203
0.1400654 0.1897788 0.8327239
0.2366904 0.212144 0.8237971
-0.1328553 0.4760529 0.4667125
0.09421395 0.07244638 0.9643996
0.01148339 0.6297333 0.3393268
0.3032116 0.2489565 0.8004155
-0.2214174 -0.005622141 1.016287
0.07812941 0.395939 0.5846033
-0.09537329 0.01527417 0.5486436
-0.01167101 0.0340826 0.9994371
-0.1109269 -0.02550105 1.062941
-0.2243874 0.5664178 0.3007107
-0.2998348 -0.1209405 1.133069
-0.2952086 0.6047769 0.3014731
-0.02559311 0.0564356 0.9684736
0.1200788 0.3739797 0.6149271
-0.1854036 0.4385784 0.4925981
-0.3021179 -0.06611468 1.092556
0.1351785 0.5514397 0.4231231
-0.5268624 -0.08339115 1.057009
-0.331608 -0.06868033 1.075086
-0.7050177 -0.01427138 0.9725459
-0.8254668 -0.03786992 0.927893
-0.2970503 -0.07795777 1.094441
-0.3247569 -0.09456073 1.116691
0.1180309 0.3708642 0.6189141
0.3027182 0.5237033 0.4871834
-0.3674445 -0.09527556 1.103368
-0.1878779 0.4404398 0.4934189
-0.3065502 -0.09567297 1.128465
-0.1040642 -0.04761335 1.095543
0.1631216 0.09057933 0.9058586
0.001513581 0.004588132 1.044432
-0.5293847 -0.08195008 1.057671
-0.2796331 0.5188575 0.3934521
0.04770277 0.05424245 0.9742457
-0.5025097 -0.03290869 1.005027
0.1403776 0.7521752 0.2053669
0.1300898 0.6224265 0.3439005
0.03912227 0.7233409 0.2161207
-0.4151794 -0.08146661 1.065464
-0.3337585 -0.06814881 1.076551
-0.1494178 -0.02492888 1.051831
-0.2925378 -0.1043313 1.11607
-0.9448703 0.006186745 0.8815188
0.0206939 -0.133015 0.7982756
-0.358975 -0.0631942 1.066998
-0.3027081 -0.007066699 1.000672
0.106021 0.3663999 0.6223395
-0.16362 -0.05934299 1.09839
0.3410707 0.318109 0.7306799
-0.1471331 0.609535 0.3359309
-0.5523806 -0.08756603 1.027418
0.1652893 0.08458527 0.9017977
-0.310194 0.5223244 0.3919006
-0.5002995 -0.0458433 1.013995
-0.4476975 -0.04933483 1.028438
0.03975894 0.4089307 0.5632578
0.4146537 0.3502855 0.7053831
-0.3701858 -0.1267913 1.123414
-0.01760962 -0.00399225 1.048756
-0.05202166 -0.00155766 1.042458
-0.318805 -0.1327122 1.134703
0.2186823 -0.1435305 0.6736346
-0.1289122 0.4982185 0.4359344
-0.7556083 -0.06836061 0.9333618
-0.4891478 -0.06875308 1.049971
-0.1148476 -0.02253778 0.5687563
-0.3137497 -0.03341292 1.037944
-0.4515656 -0.04762776 1.029856
-0.7821452 -0.05493785 0.9139215
-0.6585992 -0.05396518 1.003463
-0.3378913 0.5409492 0.3582881
0.1401664 0.139083 0.896087
0.1236543 0.1678542 0.8691911
-0.2820136 0.5479583 0.3608533
0.3269872 0.3909794 0.6464723
-0.5997373 0.3668824 0.522012
-0.3534301 -0.04555929 1.043333
0.03847968 0.4089386 0.5644733
0.1509059 0.2020818 0.8216231
0.2160437 0.2043381 0.8300114
0.1004336 0.08089904 0.9578618
-0.3236114 -0.09265798 1.108859
0.1913291 0.3386202 0.6715161
-0.823316 -0.03807259 0.9271462
0.273918 0.5993116 0.3985167
-0.574109 -0.08099426 1.009359
-0.06229031 -0.2693101 0.6374592
0.1831191 0.6309475 0.3568799
-0.2971022 -0.08889083 1.116972
0.1023883 0.3774274 0.6066357
-0.362316 -0.08633441 1.103197
-0.007343048 0.02181171 1.017889
-0.004081101 -0.0004834338 1.041101
0.0623486 0.08442167 0.9416433
-0.4869372 -0.1020987 1.067059
0.2540926 0.3700634 0.651759
-0.1634506 -0.0579689 1.099308
0.05700851 0.3760917 0.5974587
0.3370765 0.4231419 0.6132789
0.04425097 0.05674431 0.9781957
0.1954079 0.1961337 0.8365127
0.1407714 0.3272189 0.6596389
-0.201526 -0.07644414 1.104074
-0.08068489 -0.03389632 0.6846662
-0.04985808 -0.004084679 1.040936
-0.490875 -0.05454085 1.041888
-0.2269769 0.5066943 0.4096864
-0.1095781 -0.02549788 1.074768
0.2563803 0.2391127 0.7975953
-0.3645999 -0.09539492 1.063122
0.2741144 0.2513852 0.7916535
-0.03410796 0.04577247 0.4741562
-0.4713459 -0.08536798 1.075807
-0.7818605 -0.05476244 0.9132286
0.08789386 0.08013066 0.9556714
0.1296738 0.6861269 0.271176
-0.2188691 -0.06556577 1.098268
-0.03083116 -0.220763 0.7067838
-0.2253198 0.001822294 1.001165
0.1418994 0.3221554 0.6793041
0.2554794 0.2415552 0.7978925
0.05308318 0.3810147 0.5980616
-0.2456601 -0.03824776 1.055944
-0.1735413 -0.05159154 1.083227
-0.2543335 -0.04716736 1.073392
-0.4477988 -0.06572418 1.054497
0.2549915 0.2440049 0.7974283
-0.8014975 0.01736966 0.9266346
-9.230102e-05 0.07052492 0.9743624
0.1603468 0.1740441 0.8472982
0.08020223 0.8260196 0.1023695
0.2166532 0.2113246 0.8290033
-0.1614052 -0.01213291 1.042111
-0.005892413 0.691763 0.2430746
-0.07527671 -0.02976045 1.074335
0.04915866 0.3875895 0.5968933
0.1591844 0.2874229 0.6996366
0.1413291 0.3304491 0.6665488
-0.3517871 -0.09283617 1.077628
-0.5531479 -0.08785117 1.026731
0.1383373 0.2221818 0.7559462
-0.6955057 -0.0478992 0.9448596
0.2128445 -0.1156566 0.6666759
0.1592773 0.2258804 0.8007752
-0.2336646 -0.06229814 1.087231
-0.3962307 -0.05810088 1.094345
0.1730248 0.07105594 0.6152905
0.1996316 0.3281895 0.6753623
0.2512855 0.2867468 0.7074851
-0.7532945 0.003954461 1.024413
-0.7572722 -0.01159739 0.9744501
-0.8949082 -0.009223287 0.949694
-0.8861555 0.03710984 0.9437902
0.1701258 -0.0654757 0.7410491
0.1104918 -0.1581687 0.7160261
0.1269854 0.1633896 0.8569005
0.1463666 0.102606 0.5546616
-0.9061243 -0.004847248 0.9525086
0.2957461 0.3124028 0.7291517
-0.283571 -0.07844975 1.105031
0.217165 0.2091348 0.8273689
-0.4257459 -0.05067406 1.050752
0.2005597 0.188474 0.8473073
-0.5545747 -0.05380131 1.029242
-0.2524729 -0.08250371 1.109469
-0.1848857 0.6379475 0.273311
0.2034423 0.2175324 0.8241993
0.01751657 -0.1917228 0.729532
0.003094601 0.1025432 0.929326
-0.8335493 -0.04188869 0.8495087
-0.1482335 -0.005774272 1.049562
0.01402636 -0.2498826 0.6812913
-0.0458265 0.0248753 1.002534
-0.03859683 0.03389258 0.9755079
-0.1572747 -0.03585651 1.023656
-0.3569106 -0.1087739 1.036578
-0.143745 0.01394001 0.998571
-0.2100971 -0.04387288 1.053637
-0.3768679 -0.0737038 1.070717
0.1423783 0.08650955 0.8987653
-0.005654739 -0.2597888 0.6517166
-0.2431674 0.6730945 0.2454848
-0.272973 -0.00794069 1.009513
-0.1242687 0.5435147 0.3874406
-0.2529854 -0.008024999 1.013497
0.2114218 0.3084808 0.7122316
-0.2161419 -0.0212819 1.033985
0.004867686 0.04169027 0.9856401
0.2604658 0.4824513 0.5271035
-0.05741344 0.6911794 0.2344219
-0.1675242 -0.03566772 1.060559
-0.2475817 0.461772 0.4712331
-0.2021993 0.4625125 0.4730484
-0.04470973 0.632414 0.3042683
-0.3381912 -0.04360963 1.0418
0.1575543 0.6150346 0.3559422
-0.2852992 -0.02905526 1.036543
-0.2437965 0.007212479 1.001377
-0.6109583 0.4506694 0.4690863
0.1706444 0.1834135 0.8453203
0.1765288 0.5135924 0.4716188
0.2376631 0.3541716 0.7244527
0.02913295 0.08268092 0.9425902
0.1605775 0.1956473 0.8307684
0.1411324 0.4468758 0.5414972
0.252698 0.4501258 0.5619742
-0.1404502 0.6530192 0.2727474
-0.3128748 -0.01546128 1.013937
0.1602457 0.1958737 0.8302718
-0.4694304 -0.04708159 1.016072
-0.1287555 0.007870233 1.010508
-0.3520682 0.5532962 0.3542465
-0.1356946 -0.004945009 1.022419
0.01592782 0.7192016 0.2102062
0.06415894 0.726612 0.2113345
0.08275242 0.7473632 0.1811313
0.08881393 0.4481336 0.5299461
0.04296394 0.4457974 0.5276096
0.1712578 0.2341097 0.7510891
0.1705391 0.2339327 0.7506373
-0.2389855 0.4582704 0.4707046
-0.2872927 -0.01071193 1.002039
-0.06876785 0.01625308 1.01844
0.06390528 0.08907806 0.9385991
-0.04457289 -0.2194621 0.6928852
0.1554724 0.4412153 0.552381
-0.07918592 0.6699054 0.2562133
0.1998369 0.414938 0.5988945
-0.6564562 0.3578925 0.5405132
0.2055733 0.4263187 0.5798404
-0.3929615 -0.06286136 1.056171
-0.3274608 -0.1282882 1.141963
-0.4468067 -0.06578603 1.053885
-0.3861131 -0.1166269 1.090459
0.09187364 0.08024484 0.960105
0.2420971 0.4138663 0.6014567
0.2135438 0.2042106 0.8337998
-0.3516646 -0.07693338 1.082465
0.336742 0.2887975 0.7633861
-0.01610207 0.4012501 0.5632159
-0.4728231 -0.08508341 1.077617
0.01572451 -0.1944756 0.7105162
-0.4126326 -0.02661185 1.009924
0.1308261 0.1545176 0.8747017
-0.4580007 0.2497696 0.6423758
0.179652 0.2434508 0.7781934
-0.003089896 0.6930041 0.2400437
