# .PCD v.7 - Point Cloud Data file format
VERSION .7
FIELDS x y z
SIZE 4 4 4
TYPE F F F
COUNT 1 1 1
WIDTH 1539
HEIGHT 1
VIEWPOINT 0 0 0 1 0 0 0
POINTS 1539
DATA ascii
0.08797092 -0.02539803 0.6760427
0.3678339 -0.1981657 1.21007
-0.2004389 -0.272394 1.24262
-0.03949678 0.1640538 0.7176811
0.06689025 -0.1080904 0.645344
-0.4420266 0.06829078 0.6641735
-0.2060714 -0.03807081 0.9555829
-0.3617194 0.05025126 0.7245235
-0.08402354 -0.1203904 1.106489
0.1473566 -0.4032623 1.220466
-0.3251465 0.1123843 0.6575677
-0.2682347 -0.1398274 0.8889018
0.6883529 -0.1012762 1.452544
-0.2451225 -0.2330538 1.219275
-0.463609 0.07171387 0.6581704
-0.08502652 -0.1078569 1.09703
-0.4063347 -0.1143001 0.9823119
-0.2232671 0.1361085 0.6627253
0.09537586 0.0329839 0.7200586
0.2666902 0.1820071 0.8006746
-0.7074215 -0.5415291 1.281213
0.2384493 0.2078545 0.8452607
-0.5029349 -0.2013604 1.081928
-0.4651299 0.0016024 0.775756
-0.95085 -0.6866673 1.530604
0.3550884 0.1872117 0.8637797
-0.3518877 0.01876736 0.7827802
-0.5016871 0.001761091 0.7608711
-0.03646086 0.08304618 0.8003466
0.03227419 -0.3019101 1.202131
0.7421679 -0.2131314 1.680073
0.03464964 0.1627428 0.7504086
0.3087904 0.1452776 0.9232863
0.2729408 0.09043734 0.9362239
-0.7492443 -0.505235 1.416988
0.09589777 -0.0551935 0.6453141
-0.007620905 -0.2218192 1.153374
0.4651574 -0.3271354 1.375023
-0.6469082 -0.4369414 1.35729
-0.03395567 0.1272764 0.7590377
-0.1610254 -0.3872433 1.300518
-0.3376921 -0.3308522 1.340194
0.4146806 -0.1290007 1.192679
0.07151659 -0.1012505 0.5940146
-0.2630515 0.01771397 0.8316132
-0.3517208 0.09058538 0.6726972
-0.5234073 0.07447371 0.640394
-0.02929964 -0.2042185 1.150661
0.531917 -0.06891064 1.226695
-0.03189968 -0.2801847 1.199356
-0.8622722 -0.6139033 1.40534
-0.4463967 0.06932732 0.6707873
-0.5528669 -0.232411 1.031929
-0.4544783 0.04207028 0.704294
0.2139775 0.07546861 0.9585246
0.09028494 0.02986834 0.6913493
0.3683803 0.1846076 0.8388954
-0.03199501 -0.1150304 1.078587
0.1061194 0.1179898 0.7671015
0.3689393 0.0008606926 1.056636
0.3296863 -0.2216746 1.131967
0.03635295 0.120027 0.7704744
0.3585773 0.03952935 1.025946
0.1310223 -0.3743474 1.21824
-0.3947012 -0.03904837 0.8708422
-0.2431873 -0.2546565 1.204376
-0.2621754 0.1539264 0.6092531
-0.2718634 -0.3013586 1.330308
0.4965485 -0.2223437 1.38267
0.04697827 0.1854181 0.8435366
-0.452597 0.06981545 0.6433461
0.3789213 -0.2880086 1.303598
-0.6516969 -0.4958951 1.454682
-0.5610121 0.04728888 0.661814
-0.5039008 0.03629995 0.6182065
0.3341056 0.0342589 1.039148
-0.3558223 0.1071502 0.6429002
0.09287486 0.1327793 0.7806029
0.1289561 -0.3717534 1.208264
0.262022 0.0830479 0.9365061
-0.6003841 -0.5351579 1.525321
0.3999365 -0.0737492 1.119785
-0.01530366 0.1929944 0.7408484
0.02560943 -0.06104912 0.6536533
0.05968136 0.03241041 0.7503138
-0.3437872 -0.04750313 0.8520718
-0.5177367 0.01359339 0.7240121
-0.7124047 -0.6678644 1.580271
-0.4127765 0.06606313 0.6703739
0.01827448 -0.04453668 0.6410355
-0.04822191 0.132976 0.7462676
-0.29482 -0.1724461 0.9811972
0.3312686 -0.2217534 1.1512
0.3776499 -0.2890603 1.301973
-0.3075002 0.02336707 0.7851201
0.3209291 0.0303344 1.005767
-0.5485427 -0.1314739 0.9540321
-0.4229113 0.0002564355 0.6911415
-0.5271937 0.02774158 0.7077215
-0.139378 0.1440047 0.6890258
-0.2628789 -0.381532 1.401124
-0.2816011 -0.2724425 1.032064
0.2193796 0.1582127 0.8582415
-0.7241648 -0.5459144 1.493763
-0.009907492 -0.2268115 1.14352
-0.1670281 -0.2105823 1.177846
-0.214577 0.04430217 0.7949785
-0.09644078 0.1682559 0.6951403
-0.3996164 -0.1413263 1.003718
-0.680063 -0.2978811 1.150258
-0.2675601 -0.113883 0.9297575
-0.1940766 -0.111762 0.9879265
-0.3573106 0.1071822 0.6465865
-0.1032111 -0.1374159 1.157826
0.1981339 -0.03411182 0.845132
-0.08856157 -0.1819882 1.164123
-0.257886 -0.278774 0.8177331
-0.482742 -0.2597363 1.219357
-0.2862664 -0.1740857 0.8024656
-0.1842405 -0.2561937 0.9310776
-0.7032306 -0.4870308 1.373911
0.273075 0.1537077 0.7647249
0.1350485 -0.02180754 0.7453995
-0.3949747 -0.1119056 0.96869
-0.2931993 -0.2609912 1.206892
-0.3346695 -0.4916223 1.379826
-0.08826657 -0.1835855 1.147198
-0.07312775 0.08872855 0.8113243
-0.218762 -0.4455035 1.364213
-0.1643627 -0.2216274 0.771661
0.03208563 -0.1343925 0.7197939
-0.3270698 -0.3401105 1.287682
-0.3022746 -0.150201 0.9428853
0.3487995 -0.1428703 1.135754
0.2493005 0.1503339 0.8996685
0.09375767 0.06082376 0.7218127
0.01434794 -0.09801754 0.6590737
-0.111412 0.1529222 0.756773
0.01094668 -0.236898 1.180695
0.1397168 -0.01354359 0.7313488
0.1014879 0.09095892 0.8675953
0.3672496 0.0787077 0.9260082
-0.5420409 0.06055145 0.623965
-0.40565 0.02619616 0.748593
-0.034854 0.08697441 0.8078929
0.416043 -0.2343453 1.262975
0.08576887 0.0366965 0.7355672
-0.01166118 0.119477 0.7721547
-0.2534216 -0.01692149 0.9137171
-0.2700363 -0.1249823 1.04345
0.4821595 0.1442589 1.004094
-0.1007272 -0.005551716 0.9593428
0.4117117 0.03621319 1.005432
0.3817073 0.09644858 0.891045
-0.3651088 0.0520689 0.7309233
-0.5495458 0.01694538 0.7576495
-0.4607854 0.0008504089 0.7798166
-0.3441119 -0.06997683 0.8878117
-0.3003674 0.06259803 0.757843
0.08710179 -0.4475717 1.285113
-0.5321538 -0.01788755 0.7780254
-0.5744928 0.03732251 0.6602931
-0.01112705 0.02903767 0.8640035
-0.3630327 0.05050905 0.7272246
-0.4184228 0.02503825 0.7505227
-0.4721913 -0.2510398 1.182976
-0.7212905 -0.5031008 1.267366
0.2917388 0.1382609 0.9177479
-0.07107458 0.09794553 0.7935454
0.4413413 0.0362443 0.9856512
-0.006416806 0.09970883 0.7689909
-0.2873763 -0.02876179 0.8579468
-0.22576 0.1565193 0.6236858
-0.7065097 -0.5335581 1.492102
-0.6298116 -0.1066089 0.8889297
0.2389643 0.1341657 0.8905576
0.3388692 0.03026308 1.041859
-0.710923 -0.5473796 1.294514
-0.1622868 0.1552868 0.6587092
0.01776699 0.1202173 0.7753547
0.3601355 0.07345158 0.995815
0.1434181 0.0796204 0.8204341
0.2722828 -0.4703365 1.391513
0.1137449 -0.1610133 0.6198411
-0.536134 0.04259174 0.6335202
0.3048572 0.1603242 0.9592065
-0.5401177 -0.01782794 0.7859043
-0.1384121 0.07326215 0.8047605
-0.2951335 -0.07974889 0.9371058
0.01119428 -0.07108687 0.8514921
0.2865865 0.1364442 0.8801141
-0.2812368 -0.3025744 1.266529
-0.06424265 -0.2288941 1.185641
0.0905909 -0.1045513 0.6610479
-0.2863201 -0.0723654 0.8048813
-0.1577821 0.1732491 0.6628607
0.3002603 0.1382587 0.8985464
-0.07189393 0.09835229 0.7959434
0.1284254 -0.1668696 0.6780061
-0.6528345 -0.07834923 0.8384008
-0.11791 0.179419 0.6807604
0.03556257 -0.2036546 1.155861
-0.4081917 0.05340462 0.691556
-0.2555437 -0.02548509 0.89267
-0.6125856 0.002692834 0.7171243
0.2538161 0.06119838 0.967909
-0.1680887 0.03589531 0.8360882
0.1410989 0.2199325 0.8347763
-0.07338589 0.1404014 0.7240447
0.330123 0.1301084 0.890375
-0.1131231 -0.1718563 0.5088747
-0.2900607 -0.03606909 0.8728944
0.1562031 0.06122202 0.8446355
-0.1469043 0.07700261 0.7909071
0.2572316 0.1280861 0.9144144
-0.9301926 -0.7210213 1.750824
-0.2369061 -0.2473711 1.209167
-0.239379 -0.2659741 0.7779219
-0.2217681 0.1104688 0.7000211
-0.4848543 -0.0948097 0.9137529
0.1546331 -0.1500392 0.7281844
0.4724685 -0.3019764 1.318191
-0.4853415 -0.0958277 0.9147896
-0.08917118 0.1308967 0.7390282
0.04078396 -0.1286352 0.6076148
-0.5726545 -0.1008251 0.8938236
-0.2167485 -0.3270755 0.8927693
0.01566493 -0.04404736 0.8093473
-0.1430327 -0.1621801 0.5803536
0.4704814 -0.3504969 1.371329
-0.5397705 0.06503908 0.624469
0.3645357 0.07742 0.9205859
-0.2476581 -0.3198805 0.9038047
0.1032503 -0.01674886 0.7768458
0.2300578 0.1693648 0.8547196
0.1671664 -0.368899 1.212401
0.1606935 0.1088502 0.8572527
-0.1514466 0.1355303 0.6925654
-0.3593072 0.04344336 0.7471294
0.544315 -0.1620595 1.352945
-0.09213126 0.02016962 0.9302504
0.5821167 -0.2422937 1.374811
-0.1257275 -0.1330429 1.136165
1.000471 -0.5966756 2.210376
-0.001877717 0.00123198 0.8092257
-0.3617284 -0.0004281189 0.8174539
-0.580413 0.01591635 0.6560282
-0.216556 0.03098344 0.8294344
-0.9427496 -0.7274095 1.766795
-0.2507454 -0.2273064 0.8033441
-0.04827453 0.1321443 0.7429144
-0.3627397 0.04181651 0.7521472
0.5152813 -0.271612 1.341292
0.3900431 -0.4174524 1.449049
-0.1154594 -0.1419734 1.387791
-0.7148188 -0.4790328 1.214243
-0.2049183 -0.04470255 0.9516801
-0.6793894 -0.6091985 1.547401
0.007714567 -0.4401014 1.298639
-0.5116006 0.06417619 0.6425323
-0.2301759 -0.01047861 0.9138126
0.2697794 0.1358112 0.8657511
0.04320655 0.04146856 0.8560202
-0.04892983 0.1323369 0.7482631
-0.5610414 -0.02321615 0.7783566
-0.116681 0.1478766 0.731092
-0.5024986 -0.2099569 1.085148
-0.278345 -0.06589843 0.9169477
0.0001596775 0.1462243 0.749189
0.0281143 -0.06166435 0.7039522
-0.2625854 -0.2708674 1.250746
0.2705986 0.07304394 0.9591549
0.5622931 -0.204834 1.473822
-0.1226439 0.09175687 0.7782539
0.1169352 0.1659592 0.7686784
-0.140044 0.1008772 0.7644312
-0.6085264 -0.1225668 0.9236188
-0.7210463 -0.5479751 1.543297
-0.2187954 -0.2391146 1.070923
-0.5007164 -0.1983072 1.072596
-0.4594772 -0.0003397933 0.7782142
-0.348957 -0.04653395 0.8602306
-0.5251683 0.02828114 0.7078145
-0.2316904 -0.3481157 0.78833
0.1938442 0.1918111 0.862258
0.01493047 0.05959612 0.9266135
-0.2093896 -0.05324314 0.9526685
-0.2861408 -0.1350906 0.9616402
-0.513873 0.09335856 0.7827936
0.01112074 -0.05165128 0.8169814
0.06933677 -0.09932699 0.5792636
-0.2496934 -0.1949578 0.8553455
-0.2967552 -0.1677279 0.8321252
0.0986381 -0.05041828 0.7289645
0.1653002 0.1613502 0.8050858
0.1643444 0.1584788 0.8000529
-0.4321957 0.03199087 0.7181167
-0.2185063 0.04494471 0.8032476
-0.04477305 0.004178936 0.9460215
-0.5436401 -0.5447592 1.429544
0.1059632 -0.01594723 0.7928836
0.1484607 -0.410611 1.239191
-0.04940056 -0.1687496 1.134986
-0.3583134 0.01648882 0.7883817
-0.5617882 0.04481428 0.6868334
-0.5752774 -0.1525062 0.9694813
-0.2118355 -0.04536761 0.9818705
-0.5009851 0.0349353 0.7024539
0.311591 0.1812656 0.8579532
-0.3254457 0.1108679 0.6567763
0.01321744 -0.04112637 0.9105046
-0.422357 0.01433335 0.7380273
-0.002116814 0.1195965 0.755073
0.2967868 0.137349 0.841297
-0.727967 -0.5424702 1.466752
-0.5106231 0.07281893 0.6146954
0.03889883 0.1219062 0.7619414
-0.2957042 0.06198735 0.7476113
-0.9232771 -0.6083817 1.404303
-0.537195 -0.4371362 1.395108
-0.2632101 -0.2728368 1.135851
-0.1097206 -0.1191938 1.11519
0.4757116 -0.3032008 1.325699
0.01822348 0.1374621 0.7386757
-0.6857284 -0.08311099 0.8389525
-0.01488321 0.1372162 0.744377
0.01843337 0.01147045 0.7580622
-0.137419 0.07409209 0.8037043
-0.1459152 -0.1050665 1.032585
-0.5580332 -0.143998 0.9679949
-0.4340442 0.0667453 0.6532511
-0.272334 -0.3960594 1.095568
0.08909477 -0.05460221 0.6621807
-0.1880949 -0.04609276 0.9598396
-0.5188684 0.06501323 0.6502001
-0.1273966 -0.2034998 0.5035197
-0.02284258 0.1337746 0.6997463
-0.2693629 -0.028971 0.877838
0.2321951 0.1207352 0.9094697
-0.4589672 0.0712426 0.6516324
0.04087517 -0.060451 0.7813888
-0.3392562 0.1358144 0.6559305
-0.3453318 -0.07598236 0.9241931
0.01709059 -0.1081 0.7484771
0.153164 -0.05796767 0.7414914
-0.619509 -0.0315348 0.7708102
0.1517403 0.1628449 0.8013328
-0.007669031 0.1581644 0.7655475
0.06191305 -0.1479767 0.6209834
0.307195 0.08913809 0.9206411
-0.3198549 -0.01870858 0.8876065
-0.4503044 -0.054702 1.003024
-0.4643408 0.001247206 0.7740206
-0.6056822 -0.1388816 0.9469017
0.405363 0.1870804 0.8971459
0.2854069 0.1137092 0.8997746
-0.4422659 0.046967 0.7029066
-0.4060137 0.0131667 0.829042
-0.2947294 -0.152435 0.8146595
-0.5360849 -0.0180173 0.7826158
0.5103285 -0.2992428 1.370208
0.01159656 0.1116443 0.7707586
-0.2094907 -0.3130522 0.7753948
0.1950068 0.1571428 0.851346
-0.5540055 0.02701898 0.6999295
-0.6500061 -0.3856927 1.264476
-0.3113107 0.03152033 0.7896535
0.1487554 -0.4073425 1.233707
0.3097488 0.1476672 0.9405915
-0.2678187 -0.1480167 0.8137696
-0.8321953 -0.5978995 1.55011
-0.1957491 0.1609333 0.6605327
0.03248657 0.02528014 0.7588105
-0.01478007 0.1738013 0.6875231
-0.1397851 0.1480749 0.6949063
0.4711956 -0.2140635 1.318228
-0.01924427 0.1146104 0.7279775
0.1077668 -0.1740563 0.6465864
-0.5607108 -0.05686751 0.8216131
-0.4856139 -0.09505033 0.9153773
0.3724871 0.04791448 1.067015
0.2936552 0.1267344 0.9352143
-0.1383238 0.1006463 0.7627679
0.5156431 -0.2536683 1.304255
0.09011901 0.05381608 0.8054157
-0.1533568 -0.1059233 1.040646
-0.07381104 -0.001561871 0.9251764
-0.4811163 0.02899471 0.724629
-0.2715424 0.1380691 0.6687763
0.3185059 0.0969817 1.022847
-0.5764714 -0.120631 0.929088
-0.6377391 -0.26955 1.121817
0.3601818 -0.0009967701 1.033313
-0.1404478 -0.3470309 1.273811
0.0523115 -0.02410915 0.6532645
0.07798424 0.1218637 0.7877607
0.1202979 -0.4591824 1.271797
-0.8134413 -0.4002619 0.9371244
-0.1979744 -0.02618056 0.9478171
0.1557686 -0.1494984 0.7333321
-0.2030667 -0.2760839 1.26346
-0.475203 -0.0284928 0.8154895
-0.07411439 0.00188565 0.9247595
0.3928977 -0.3272695 1.337645
0.1515183 -0.3868375 1.220453
0.8417234 -0.5249596 1.905646
0.07710513 0.1777029 0.9377123
0.298833 0.1094344 0.8747263
0.6858761 -0.6398188 1.879207
-0.1197193 -0.2269968 1.198632
-0.1154206 -0.3457766 1.274159
0.3042814 -0.4028775 1.351986
0.05921975 -0.1975377 1.15433
-0.2519339 -0.1241161 1.05347
0.4100697 -0.007071304 1.074213
0.2303086 0.1241115 0.8950469
0.3264197 -0.2196919 1.116992
0.1425525 0.134557 0.8258283
0.4083779 -0.3629182 1.343501
0.07125095 -0.5119566 1.315731
0.2831721 0.1128362 0.8950596
0.4494733 -0.05165413 1.114046
0.4690741 -0.3011786 1.313089
0.05645015 -0.3961163 1.261055
-0.1855795 -0.05142192 0.976809
-0.1650846 -0.2082445 1.163801
-0.5205492 0.06965517 0.6304716
-0.7520524 -0.500673 1.440042
0.3447897 0.01204954 1.044094
0.1408133 0.1340825 0.8187613
0.4238602 0.04961823 1.006036
-0.1893924 0.1394801 0.6618549
0.00442953 0.1210281 0.771926
-0.09326965 -0.2934838 1.22305
-0.3124033 0.04406527 0.767232
0.3955337 -0.07242184 1.104325
-0.2640739 -0.03638054 0.8737835
0.4309597 0.1756114 0.9287114
-0.2502176 -0.1251283 1.04458
0.03392681 -0.2033916 1.146445
0.02887342 0.1927861 0.720463
0.5287923 -0.7838403 2.008149
0.2987174 0.1244562 0.8648986
-0.2455217 -0.2215175 1.205931
-0.3100863 -0.2665391 0.9703696
-0.2126038 0.05065837 0.803925
0.5573649 -0.2338638 1.325394
-0.08780518 -0.1089326 1.145393
0.1867127 -0.3228647 1.18287
-0.007052185 -0.02967653 1.018606
0.2715856 0.1258355 0.925634
0.177619 -0.6314789 1.508492
-0.3463115 -0.07176384 0.8939538
-0.1034584 0.1401557 0.7162079
-0.6794072 -0.2989386 1.146728
-0.5588811 -0.2164186 1.075347
-0.2753819 -0.06702385 0.8962895
0.4088673 0.08953711 0.967831
-0.4045047 -0.1397888 1.010576
-0.1053193 -0.1342839 1.120555
0.2514867 0.1303356 0.9232388
0.02843296 0.01871241 0.7069134
-0.06993824 -0.1776982 1.175862
-0.09193764 -0.07781339 0.9286193
-0.04238175 -0.1134663 1.090284
0.03502305 0.1807383 0.7097101
-0.09271153 -0.2948926 1.229076
-0.4761791 -0.02837013 0.8174049
-0.2934506 0.003361794 0.862473
0.3725304 0.001252006 1.064784
0.347984 0.06874291 0.9688781
0.2729228 0.1529037 0.7516562
0.4308746 -0.007347467 1.080838
-0.2957767 -0.155131 0.9817551
0.2849644 0.1482646 0.8620589
-0.2264618 0.1392604 0.6719991
-0.04823709 0.1336405 0.7494543
0.4025985 0.04384172 0.961283
-0.1681031 -0.16948 1.141627
-0.0162787 0.1363986 0.7492539
0.3695522 0.07592346 1.020262
-0.1038784 -0.1078642 1.145686
-0.5646522 -0.02328854 0.7832464
0.2250317 0.1274998 0.9122108
-0.1833329 -0.1071066 1.041169
-0.1666094 -0.1694009 1.151038
0.04396085 -0.2599469 1.17648
0.3413215 -0.1408457 1.120049
-0.1365091 -0.09934235 1.032037
-0.3281627 -0.01746114 0.851719
0.3053545 0.003116332 1.037004
-0.4491091 -0.4135 1.148373
-0.05950915 -0.1022713 1.090302
-0.3926093 -0.03627813 0.8645641
0.2809192 0.05085232 0.9882716
0.2894443 0.1166286 0.9102173
0.2478555 0.125247 0.917363
0.2567447 0.1314619 0.9190829
0.07110367 0.03241789 0.7114263
-0.4923072 -0.2068584 1.112161
0.04654169 0.1247628 0.7701313
-0.25042 -0.04604369 0.8995006
0.3219951 0.1607565 0.9353068
0.1002207 -0.01486524 0.7832168
-0.5589892 -0.1438137 0.9712187
0.2898143 0.1453683 0.8756707
-0.1509075 -0.1640978 1.14186
0.155355 0.1300766 0.8323933
0.09019959 0.07253244 0.8102074
-0.3130909 -0.1530865 0.8421586
0.1246957 -0.05502782 0.6746252
0.3435288 0.006400842 1.011771
-0.2680079 -0.03633159 0.8865318
-0.5456252 0.07823469 0.6357651
-0.2196636 -0.01854007 0.922587
-0.1871925 -0.02755782 0.9558105
-0.4787488 -0.03013327 0.8221092
-0.5612628 -0.02218886 0.7794447
-0.0760774 0.1477712 0.7471622
-0.7075748 -0.479121 1.340291
0.1527798 0.129291 0.8238935
-0.08901799 -0.06426344 1.011233
0.1875729 -0.3242654 1.187459
0.2021593 -0.3853567 1.247743
-0.6054608 -0.4571078 1.246247
-0.6067862 -0.342548 1.24001
-0.2956587 0.06257145 0.749296
-0.02702906 -0.1147053 1.078222
0.3185258 0.13307 0.9005838
-0.6304052 -0.56196 1.52834
0.3959286 0.02547907 1.067807
-0.4199561 -0.01770441 0.8167782
-0.4304872 0.03777045 0.7237338
-0.06573277 -0.06771935 1.043781
0.02141226 0.01593104 0.7346268
0.1474712 -0.3822609 1.201434
-0.4811784 0.03934734 0.6836618
-0.1496677 0.09103128 0.7649071
-0.2302509 -0.2909706 0.8299305
0.1869391 0.1804111 0.8156301
-0.08492465 0.1099136 0.8966252
-0.1984681 -0.399739 1.311063
-0.1684138 -0.02899888 0.9429278
0.3256428 -0.01325843 1.038417
-0.2823593 -0.07038183 0.9179267
-0.2892677 -0.1465825 0.8362915
-0.2480254 0.1491611 0.6553025
0.09975079 0.09048889 0.8591071
0.4294274 -0.2747163 1.306795
0.122273 -0.4219185 1.248325
-0.5641279 -0.05514983 0.8263315
0.3369862 0.01862008 0.9836147
-0.4747896 -0.0288985 0.8148123
-0.6024837 -0.1194905 0.9165831
0.1015383 0.1898085 0.7750456
0.3934919 0.04040966 0.9443609
-0.03749342 0.0002934077 0.9482042
-0.2023351 0.1625282 0.6477812
-0.564769 -0.05721071 0.825049
-0.225476 -0.2401328 0.6630607
0.1439586 -0.05861053 0.6975297
0.3745086 0.1752115 0.8164408
-0.502 -0.5832248 1.427813
0.2266159 0.1654406 0.8452404
-0.2247834 0.05594875 0.845829
0.4104941 -0.0725496 1.135619
0.6859683 -0.2591165 1.500281
-0.2924491 0.1222197 0.6407217
0.3194403 0.1375593 0.8817095
0.1794391 0.1920425 0.8076665
0.0879257 0.1316752 0.7805107
-0.3591637 0.04302655 0.7465708
0.3107214 0.1586494 0.9314857
-0.07220171 0.01392352 0.9342723
-0.0004831429 -0.004736981 0.8396702
-0.4056093 -0.3434161 1.078574
-0.4142952 0.04005018 0.7236586
-0.01115704 0.02921974 0.8669575
-0.4603114 0.04892617 0.691161
-0.347344 0.101306 0.6626732
0.1582979 0.171153 0.8262863
0.3918582 -0.07409714 1.103888
0.2886632 0.04933923 0.9818779
0.4437566 0.07533985 1.032724
0.1420801 0.02715043 0.7730609
0.0008509606 -0.2423593 0.7665592
0.02428769 -0.06069616 0.63112
-0.0330095 0.128529 0.7622994
0.1720511 -0.4848388 1.327194
-0.3031878 -0.009656256 0.850919
-0.3787448 -0.03589872 0.8608815
0.07492652 -0.1482957 0.5242695
0.3137003 0.1016155 0.9171903
-0.08308271 -0.2775699 1.197049
-0.2230467 0.1113867 0.6969874
-0.194085 0.06295439 0.7924633
0.2382321 0.06267726 0.9776603
-0.513239 -0.2225595 1.12073
-0.3419777 0.0997955 0.6545964
-0.2339177 0.08386103 0.7451165
-0.2617999 -0.2675119 0.7601562
0.02234524 0.1169109 0.7656916
0.2795028 0.1666648 0.8593336
0.1176971 -0.167145 0.6735909
-0.0358014 0.08473057 0.8070834
0.3078467 -0.4430137 1.393981
0.1105351 0.1243868 0.792538
-0.5126157 0.02847068 0.7158282
0.159446 0.1075465 0.8530785
-0.110747 -0.2540441 1.215138
0.2903335 0.1321404 0.8250349
-0.01478355 0.1838747 0.7136289
0.3732649 0.05989805 0.9804382
-0.5883775 -0.1126769 0.9084201
-0.1845103 0.06628129 0.7798346
-0.746417 -0.3729658 1.204789
0.2593862 -0.4577755 1.390817
-0.271177 0.1466291 0.6200429
-0.7633405 -0.3792856 1.234592
0.1473065 0.1399059 0.8049904
-0.4425151 -0.008356085 0.7924694
-0.2255243 -0.1054591 1.025861
-0.08982813 0.08919637 0.8318123
-0.03780606 0.0568051 0.8490215
-0.5875941 -0.1354209 0.9609685
0.3289065 0.1166905 0.8765212
-0.2906081 -0.03535513 0.8752112
-0.1351662 0.122887 0.7047618
-0.6338091 -0.07814349 0.8149119
0.05169399 -0.138902 0.5506047
-0.001581836 0.00126066 0.814786
0.1008442 -0.1903186 0.7450442
0.1605393 -0.1581803 0.7482843
-0.1503777 0.138384 0.6940047
0.2319825 0.1718907 0.8631307
0.2820418 0.160165 0.7746932
-0.2122077 -0.05164193 0.9646521
-0.5578735 -0.143913 0.9682778
0.05287668 -0.02674287 0.7925837
-0.586728 -0.1400784 0.9579094
0.2543824 0.119245 0.8805022
0.225743 0.05806204 0.9724784
-0.102179 -0.1266112 1.1399
0.02622023 -0.08175892 0.6586006
0.3848706 0.09713864 0.8961889
-0.01273814 -0.1887293 1.14135
0.2905143 0.0575651 0.9872114
-0.1004688 0.1815522 0.6906924
-0.01285905 0.03345422 0.8801009
0.4441181 0.05513914 1.049938
0.1166223 -0.4190178 1.232885
0.2370378 0.1413773 0.8626181
-0.2607855 0.06621346 0.7652407
-0.1609336 0.08695447 0.7754696
-0.2766991 -0.066775 0.9016947
0.3223062 -0.23161 1.186373
-0.592087 -0.2450592 1.106853
0.2198119 0.05509255 0.9499795
-0.4816238 -0.2076412 1.107667
0.04207045 0.06461795 0.7494797
-0.257056 0.06920955 0.7599545
0.5331665 -0.0508431 1.199809
-0.2062199 -0.04502175 0.9550432
-0.09745637 0.1628682 0.6758857
0.2293988 0.1666026 0.885576
0.3165112 0.03025967 0.9997053
0.3279808 0.03600048 1.000891
0.2874552 0.06068819 0.9823951
0.02954999 -0.2035497 1.133368
0.5310116 0.07936583 1.124291
0.163972 0.1803245 0.7607501
0.3429915 0.01603178 1.042396
-0.134995 0.05612054 0.8464601
0.2929974 0.0507134 0.9985779
-0.2784673 -0.1109433 1.03177
0.5155832 -0.1561522 1.286714
0.3542662 -0.3686635 1.37714
0.3496099 0.03710792 1.014691
0.3743736 -0.3850357 1.404102
0.4336207 -0.3440971 1.362664
-0.531302 0.01458507 0.7335255
0.2792584 0.1692632 0.8989213
0.164345 0.1601259 0.8013619
0.32743 0.1248616 0.9476622
-0.004901548 -0.221747 1.156968
-0.123089 -0.03511512 0.9676639
-0.4195736 -0.01664394 0.819612
-0.5224596 -0.1492191 0.9874328
0.354616 3.097042e-05 1.009869
-0.4035876 -0.1137603 0.9721543
-0.515794 0.02942306 0.7208068
0.1173484 -0.1746526 0.6870617
-0.5054345 -0.07749984 0.7765052
-0.5046392 -0.1407728 0.8572357
0.49512 -0.04980183 1.121787
-0.521781 0.03520351 0.6816171
-0.1881642 -0.3083138 0.7941014
-0.009049841 0.145216 0.7473049
0.4217077 0.09332141 0.9954593
0.1389476 -0.5270029 1.339806
-0.2562559 -0.1922769 0.8310006
0.4142542 0.03638335 1.010058
0.05028697 0.1352998 0.760963
-0.4417531 -0.008397044 0.7986532
-0.07234213 0.01158097 0.9297119
-0.218524 0.04669743 0.8063069
-0.1420577 0.1439621 0.6939698
0.6385201 -0.6013232 1.968466
-0.1192653 -0.229771 1.197487
0.3752187 0.1258678 0.8804057
0.2795894 0.104652 0.9402227
0.3578371 0.0404692 1.012005
-0.7351829 -0.4414155 1.25055
-0.3522756 0.0386368 0.729326
-0.06498784 -0.2746921 1.212431
0.1501513 0.1334523 0.842065
0.272162 0.1018524 0.9231482
0.2156268 0.1743729 0.8254321
0.01477957 -0.09399474 0.67047
0.08617901 0.07227281 0.7996877
-0.7434558 -0.3766463 1.208683
-0.6002947 -0.1194131 0.9131251
-0.01744778 -0.03734394 1.077629
0.1423339 0.1600451 0.7813053
-0.1432219 -0.3462285 1.27374
-0.2563958 -0.02510011 0.893759
-0.01013341 0.1000953 0.77047
-0.5063348 0.07060829 0.6228983
-0.3425918 -0.06922574 0.8845149
-0.7179689 -0.4861971 1.36089
-0.5305305 -0.263513 1.362715
-0.488775 -0.2582594 1.186181
-0.305388 0.1102307 0.6399018
-0.2985996 -0.3056621 0.876137
-0.2828133 -0.1118154 1.036952
-0.2765455 -0.1419617 0.7709762
-0.4884177 -0.211208 1.122702
0.2493556 0.1511206 0.897581
-0.1834515 -0.301465 1.262844
-0.301017 -0.006544681 0.855458
0.04505645 -0.03101816 0.7123935
-0.3472396 0.0141835 0.7651935
0.09278648 -0.4563294 1.337219
-0.01733598 0.1361842 0.7497217
-0.254307 -0.2033979 0.8329538
-0.2712332 -0.2786283 0.7868937
0.1287986 0.1399439 0.804333
-0.23834 -0.108662 1.03207
-0.2556753 -0.2345571 0.8253703
0.04460708 -0.03164714 0.7023344
-0.2649166 -0.1160616 0.9220617
-0.1906042 -0.1063034 1.0453
-0.2720698 -0.278593 0.7847807
-0.6523258 -0.2150541 1.043612
-0.1318065 -0.2725055 1.222606
0.4486823 -0.2343174 1.187122
0.4168667 -0.009377086 1.050899
0.4669202 -0.01312269 1.089046
-0.6711167 -0.03692957 0.7555347
0.1460073 0.1230145 0.8280699
-0.262859 -0.4689199 1.414191
-0.09418146 0.05485224 0.870284
0.273793 -0.02915933 1.032103
-0.3809371 0.006319333 0.7945136
-0.2289097 -0.01024398 0.9121191
0.5463843 -0.2249568 1.325417
0.1424299 -0.5307698 1.349973
-0.2185688 0.003386488 0.8676248
-0.09602736 0.006924434 0.9885839
-0.7956991 -0.1437359 0.8467475
0.3185026 0.1007713 0.8344523
0.01528536 -0.3506651 1.237246
0.5188802 -0.2550985 1.311842
0.15187 -0.4077517 1.236556
-0.2085032 -0.07424373 0.984918
-0.1101196 -0.1204369 1.115296
0.4142673 -0.2325524 1.260912
-0.2742536 -0.1814833 0.8383991
0.2511988 0.05986648 0.9579632
-0.1770919 0.07429587 0.7815636
-0.3827051 0.006422374 0.7967634
-0.7239517 -0.4950026 1.239344
0.02246905 -0.04158191 0.7253759
0.2371364 0.1187255 0.8871899
0.006618244 -0.008652648 0.9476292
-0.4597953 0.07117352 0.6545905
0.3547088 -0.3676958 1.380963
-0.2158191 0.03839299 0.7749423
-0.1410596 -0.5113789 1.385484
-0.7504146 -0.5072774 1.418509
-0.1924433 -0.1078073 1.022834
0.07210173 -0.5631561 1.352059
-0.5174304 -0.344932 1.271041
-0.5181523 -0.3499742 1.275202
-0.539028 -0.5391626 1.421492
-0.6107921 -0.4544268 1.147706
0.6942214 -0.4260667 1.733118
-0.07365019 0.1406607 0.7248515
0.1055912 -0.01185385 0.7964664
-0.03699049 -0.2275055 1.16918
-0.5605599 -0.2155304 1.073556
-0.2616034 0.0161134 0.826684
0.04841221 -0.2398728 1.147896
0.3788049 0.08306553 0.9494876
-0.2428563 -0.5686936 1.44076
0.7082235 -0.2636524 1.507824
-0.2741679 -0.4638498 1.419413
0.1122208 -0.5640901 1.366171
-0.05042877 -0.4958188 1.326436
-0.2462925 -0.366996 0.8332589
0.4659639 -0.09220178 1.163386
-0.003660064 -0.2495262 1.15317
-0.4808293 0.01290463 0.762108
-0.6243644 -0.07544668 0.8351479
-0.346487 -0.04708201 0.8552748
-0.6934533 -0.581028 1.465972
0.02227978 -0.3133427 1.207203
-0.4654738 0.04771408 0.6724669
-0.2222374 -0.02786569 0.9474933
-0.5145217 -0.3021027 1.21671
0.01206825 -0.06137338 0.7727903
-0.1020234 -0.5092101 1.360298
-0.3077111 -0.150492 0.8259023
0.206142 0.184507 0.8203849
0.4235198 0.03783611 1.027513
0.4547251 -0.7127376 1.838964
-0.3041585 -0.03000187 0.8974492
-0.06640021 -0.5335328 1.357668
0.003351806 -0.03789176 1.024622
0.2633289 -0.5259727 1.436225
-0.09098326 -0.3796211 1.286033
-0.478696 0.01172331 0.7579589
0.3062015 0.08473016 0.9721649
0.5400823 -0.09014136 1.155977
-0.2203003 0.005657086 0.8652551
0.4717083 -0.09195618 1.175449
0.137087 -0.5238799 1.328511
-0.1315517 -0.2725592 1.225381
0.6074795 -0.5775468 1.886632
-0.3300343 0.1295461 0.6407024
-0.09214933 -0.2928202 1.222858
0.05529794 0.1811102 0.7554705
0.3989282 -0.2804076 1.293386
0.3540877 -0.3885914 1.401541
0.1863268 -0.3229753 1.185149
0.3470632 -0.07891835 1.089351
-0.6091699 -0.186094 1.007574
-0.7307506 -0.2190084 1.027223
-0.02922506 -0.4910612 1.314432
0.343298 0.006096783 1.01199
0.2250147 0.05360283 0.9761577
0.1445606 0.08562369 0.832499
0.1112511 -0.02225166 0.7891548
-0.4180571 -0.01598844 0.8180024
-0.4590596 0.05327429 0.6629627
0.3701119 -0.2774378 1.298989
-0.08389309 -0.1158744 1.111719
-0.3118692 0.04378255 0.7657813
-0.5859096 -0.1106921 0.8925202
-0.04313421 -0.1444737 1.11332
0.3776091 -0.04661588 1.074671
0.100522 -0.01534284 0.7867561
-0.6607869 -0.3873494 1.278293
-0.08445533 0.0727764 0.8473178
-0.2177237 -0.3198441 1.283561
0.3414966 -0.2916251 1.257318
0.2719919 -0.4754771 1.405441
0.158406 0.1076069 0.847015
-0.0500868 -0.1680763 1.127616
-0.2354148 -0.662185 1.604921
-0.9100128 -0.5594829 1.345469
-0.3230556 0.05362777 0.7480767
-1.198566 -0.605343 1.32896
-0.1276359 -0.1336581 1.117145
-0.1122219 -0.02310587 0.9464311
0.6985834 -0.2602021 1.489937
-0.1866713 -0.1082999 1.065346
0.3728328 0.05857696 0.9798113
-0.1730109 0.132993 0.6769412
-0.3489339 -0.01202634 0.860409
-0.4482947 -0.02527127 0.8196914
-0.2520687 -0.2375002 1.237719
-0.1009514 0.07245531 0.849779
-0.3654316 0.04925431 0.7314885
-0.03289025 0.04871934 0.86098
0.01114803 -0.2347345 1.154592
0.3000254 0.09385926 0.962825
0.03650767 -0.05584839 0.7055526
-0.3126621 0.03097943 0.7906703
0.2544625 0.1307918 0.9326732
0.3601955 0.07349131 0.9965199
0.2797976 -0.04257552 1.021102
-0.3455406 0.02085436 0.7834385
0.7426563 -0.5340853 1.84901
-0.3269599 -0.01776651 0.8525901
0.3726336 -0.2785543 1.305724
-0.35225 0.07887455 0.7673522
0.5126565 -0.1559779 1.285115
0.09153178 0.1359905 0.7950125
-0.1744264 -0.44477 1.313178
-0.1821951 -0.204021 1.2024
0.6550959 -0.4907097 1.800525
-0.1927092 0.1435712 0.6735874
0.02469733 -0.1817366 1.118312
-0.1206709 -0.2266025 1.205627
-0.1343952 -0.3801435 1.28461
-0.0753876 0.1471687 0.7450299
-0.3200753 -0.206691 0.9031689
-0.3000894 -0.1196418 1.015071
-0.1230649 -0.1347497 1.163089
0.3421704 0.006067205 1.008164
0.3499309 0.07024081 0.9733372
-0.03986686 -0.005501153 0.8897712
0.02724997 -0.2254112 1.148741
-0.4067229 -0.1147671 0.9842114
0.3467571 0.03804981 0.9835179
0.2120319 0.09189738 0.9478487
-0.1118629 0.1145057 0.7417191
-0.1213399 -0.2272775 1.210305
-0.5372181 0.03596759 0.6960754
-0.1432703 -0.1464619 1.131232
0.1011965 -0.4828094 1.295225
-0.1958242 -0.04804575 0.9573279
0.5574755 -0.09129438 1.192086
0.2454907 0.1469111 0.8906975
0.4069169 -0.1277335 1.167018
-0.10557 0.1406993 0.7118874
-0.1170483 0.164381 0.6859769
-0.4202262 -0.01517696 0.8220733
-0.1106538 0.1128123 0.7353082
-0.1523051 -0.1863734 1.137942
-0.2808553 -0.06041197 0.909273
-0.0162806 0.1305707 0.724426
-0.1405748 -0.5149193 1.39684
-0.1757984 0.1212943 0.710737
-0.7798994 -0.5604977 1.520046
-0.2244619 0.1124142 0.7016155
0.1674071 -0.4756718 1.304354
0.2960005 0.08133148 0.9700293
0.2269636 -0.3307061 1.216303
0.5656028 -0.09137361 1.206044
0.3842148 0.1689155 0.8524179
-0.1729112 -0.2240858 1.178566
-0.2589536 0.06663859 0.7609573
0.325087 -0.01354967 1.035968
0.3400017 -0.2252998 1.162121
-0.6375496 -0.4848783 1.429179
0.2657975 0.0997545 0.9105844
-0.4455906 -0.2059698 1.129453
-0.4044946 -0.1466715 1.022097
-0.5240547 0.04958519 0.7409416
-0.1032776 0.1398607 0.7156615
0.1641068 -0.0404065 0.9413574
0.3034055 0.1253345 0.8755245
0.356353 0.119083 0.9163448
0.3246529 0.07447363 0.9877488
0.3145766 0.09587177 0.9998074
0.4072882 0.03194591 1.011721
-0.03603449 -0.2280117 1.176047
-0.2773283 -0.2417291 0.9585733
0.1270437 0.1392768 0.8035541
0.1416795 -0.01276584 0.7416856
0.4420741 -0.3343439 1.297505
-0.1122242 -0.1187108 1.140809
-0.2510188 -0.01002219 0.8833947
0.8851597 -0.4513055 1.887761
-0.2446716 -0.230799 1.212917
-0.1130434 0.1155953 0.7448545
-0.3406029 -0.01379569 0.8400059
-0.5993477 -0.1202892 0.909319
-0.4551357 0.020441 0.690893
0.3283771 -0.01321075 1.047942
-0.06773794 -0.03921305 1.025079
-0.09210417 0.002420645 0.933412
-0.5391211 0.07730597 0.6663241
0.3073758 -0.4447703 1.395543
-0.1280517 -0.3905632 1.29407
0.2556349 0.06130731 0.9690834
-0.4925166 -0.1325298 0.9726483
-0.4658387 -0.183275 1.054202
0.02159814 -0.1780854 1.091253
0.289532 0.1244504 0.9213
-0.6306854 -0.1239539 0.9138039
-0.3152616 -0.3064199 1.254451
0.06273795 0.1315327 0.782292
-0.4364073 -0.09453095 0.9470934
-0.4080603 -0.009709508 0.8121842
0.2924574 0.05718558 0.9901378
-0.4175383 -0.01604333 0.8168057
0.0246957 -0.04502409 0.7795627
0.444212 -0.6998916 1.806419
-0.6815289 -0.2978928 1.152342
0.4382551 0.0537273 0.9886401
-0.7624272 -0.5148694 1.280773
0.4880269 -0.007465899 1.099151
-0.03153915 -0.2805226 1.202851
-0.1060459 -0.1359869 1.170657
-0.2590511 -0.2280059 0.8561796
-0.2775292 0.008481235 0.8392673
-0.1862944 -0.04804873 0.9707506
0.08962953 0.1302231 0.7769885
-0.2932411 -0.03590956 0.8819291
0.08387537 0.04544252 0.7661484
0.03933958 0.08495156 0.9452604
-0.5333709 -0.104864 0.9055296
-0.1524304 -0.1072107 1.011595
0.2365256 0.06156268 0.972464
0.07150049 -0.1105032 0.6726138
0.2466732 -0.01233285 1.016947
-0.445597 -0.2057211 1.129087
-0.4208054 -0.0588732 0.8770458
-0.4371084 -0.1613764 1.035396
0.1277467 -0.3688906 1.196083
-0.1808855 -0.4221893 1.3202
-0.2478399 -0.1617016 1.109066
-0.4514253 -0.09866302 0.9313998
-0.5884162 -0.421291 1.365822
-0.281127 -0.1123903 1.025518
-0.09730764 -0.396482 1.304769
-0.315109 0.03184171 0.7980748
-0.1124654 -0.312297 1.229514
0.06481111 0.1103083 1.025636
-0.08897066 -0.06264057 1.011947
0.1266324 -0.2768847 1.173916
0.2803343 -0.04296443 1.023208
0.3490756 0.005173781 1.027251
-0.3696736 -0.4457298 1.321122
-0.2723163 -0.130814 0.9950023
-0.2316423 -0.09331531 1.022072
0.03075461 -0.5009293 1.326141
0.8165346 -0.5093053 1.849003
-0.1312883 -0.1342416 1.112479
0.1722622 -0.5422229 1.339472
-0.1810211 -0.4245292 1.328171
-0.5029425 -0.1717237 1.022825
-0.09798453 -0.2513767 1.211318
-0.03558428 -0.1161667 1.088114
0.09340628 -0.4044827 1.257717
-0.237613 -0.2467868 1.210862
-0.2166398 -0.0793249 1.013597
0.4726736 -0.3502485 1.3706
0.027033 0.02364243 0.7643806
0.3399372 -0.09790612 1.121786
0.2047128 -0.4966763 1.358307
0.4095887 -0.232247 1.251019
0.7637677 -0.3876979 1.730098
-0.1647673 -0.5449825 1.404046
-0.5025135 0.001567635 0.7613427
0.7375845 -0.5452691 2.008687
0.1140999 -0.3481007 1.210191
-0.4432402 -0.009887906 0.8002627
0.4648169 -0.211719 1.308794
0.2153963 0.1314048 0.8849936
-0.4353816 -0.008328806 0.786817
-0.6938869 -0.3570139 1.224059
-0.2615245 0.08115435 0.7271053
0.3809159 -0.3234722 1.378502
-0.04703619 0.01282647 0.9464352
-0.08914688 0.08748408 0.8257293
0.07313284 0.1857695 0.7533876
-0.07681055 0.06350601 0.8799828
0.4080414 -0.3524207 1.342177
0.2138958 0.1530918 0.8404702
0.329092 0.1691526 0.7766957
0.2314441 0.1290779 0.8697241
0.3771724 0.102066 0.8665522
0.1619128 0.110307 0.8602647
-0.4788752 0.05409915 0.6837846
-0.3034142 -0.01012058 0.8506107
-0.1957246 -0.1094927 1.056061
0.06426596 0.07638921 0.8039952
0.05914119 0.1276503 0.7694302
-0.4750084 0.01179884 0.7529626
0.3164137 0.131514 0.894363
-0.04681414 0.01304932 0.9472845
0.08327182 -0.437926 1.262377
-0.1697679 -0.1697679 1.14335
0.1650436 0.1815616 0.7643075
0.05601245 -0.3954788 1.26073
0.1322858 0.1241033 0.817198
-0.4258736 -0.0916236 0.9235207
0.3133346 0.1185188 0.9086197
0.1056826 0.117967 0.7678367
0.2956018 0.08033519 0.9443078
0.04099502 -0.4207208 1.288829
-0.3360419 -0.544091 1.437921
0.4570566 -0.7335303 1.774194
0.1116306 -0.1992054 1.144403
-0.5732073 -0.1200778 0.9231094
-0.2767581 -0.2293433 0.7739241
-0.05194592 0.1147119 0.7777948
0.01013265 -0.01428441 0.8474696
-0.6871666 -0.3505501 1.206102
0.06401554 -0.1549784 1.152866
-1.00722 -0.6607529 1.531474
-0.7626397 -0.3704456 1.230236
-0.3476224 -0.0507838 0.8595642
-0.178038 -0.1053947 1.05815
-0.6348736 -0.12501 0.9198139
-0.6223359 -0.02894184 0.7747349
-0.6575604 -0.234345 1.073272
-0.6155808 -0.4724385 1.227047
-0.6058859 -0.4956564 1.460832
-0.2140294 -0.3159538 1.261069
-0.9294374 -0.3359463 1.120884
-0.1194893 -0.1496403 1.323551
-0.1869976 -0.1756417 1.171429
-0.05321195 0.1056928 0.7800562
0.06750147 -0.2556928 1.154336
-0.5042195 -0.2079499 1.092687
-0.09820033 -0.3167143 1.235506
-0.5587685 -0.1439889 0.9701057
-0.4880184 -0.09633831 0.9189764
-0.6599289 -0.03725598 0.744624
0.3398436 -0.0281623 1.052032
-0.04773302 0.03422182 0.920238
-0.1418836 -0.3498178 1.285889
-0.6228862 -0.2644567 1.093419
0.166849 -0.3696983 1.215739
-0.1879671 -0.04742356 0.974074
0.04366587 -0.07623219 1.083895
-0.3242624 0.05122448 0.7529967
0.001214506 -0.01319022 0.8129724
-0.7402918 -0.4856462 1.449862
-0.1518836 -0.3106978 1.252425
-0.562865 -0.07159409 0.8431634
-0.2587004 -0.1557461 0.8337179
-0.5902925 -0.1126556 0.9094665
-0.6198997 -0.06116628 0.8158727
-0.5633652 -0.05471433 0.8248243
-0.2519802 -0.0177742 0.90601
-0.1416651 -0.6668496 1.537731
-0.5012975 -0.4170382 1.400537
-0.2668805 -0.2706849 1.241409
0.03523833 -0.5375401 1.325442
0.1430831 -0.5105815 1.305281
-0.6322685 -0.1070856 0.8931732
0.03742455 -0.5468462 1.34824
-1.182467 -0.5887576 1.31243
-0.5259982 -0.4439581 1.404741
-0.6167809 -0.02864115 0.7686576
-0.6713881 -0.09414625 0.8769323
-0.2621258 -0.2728364 0.7533129
-0.2075622 -0.04249695 0.9498678
-0.691379 -0.06771667 0.7844172
0.03039435 -0.2285301 1.082629
-0.2201907 -0.6596756 1.567801
0.3650406 -0.3776824 1.376179
-0.5309857 0.03159268 0.7156477
-0.4959789 -0.3888383 1.370568
-0.2052384 -0.1214571 1.070859
-0.06882834 -0.1650359 1.145655
0.1755482 -0.498149 1.337104
-0.6364643 -0.01843878 0.729773
-0.7949533 -0.1917319 0.9448672
-0.306716 -0.1501791 0.8158792
0.1104933 -0.1995616 1.140267
-0.1866064 -0.1038631 1.047628
-0.1393901 -0.2160541 1.203227
-0.6300561 -0.2123295 1.093639
0.3490892 -0.4253663 1.423152
0.2800508 -0.4710176 1.404712
-0.03159462 -0.4356496 1.299522
-0.5504074 -0.1576698 0.9741535
-0.5874633 0.008043594 0.7254766
-0.6565931 -0.2339104 1.070975
-0.4988126 0.01796339 0.7364188
-0.5979277 -0.08952982 0.8693283
-0.810342 -0.224767 1.004604
-0.6045646 -0.3413435 1.237176
-0.6546972 -0.06231729 0.8163617
0.1093004 -0.3427446 1.189766
0.1504509 0.1424987 0.8193924
-0.7924439 -0.1241306 0.8564194
0.1054264 -0.2539908 1.162429
-0.641737 -0.03133045 0.7563369
-0.2168729 -0.3898062 1.300256
-0.1100239 -0.1207148 1.105438
-0.1107575 -0.1208489 1.118011
-0.728689 -0.4932419 1.371469
-0.3969831 -0.2022872 1.119522
0.09384108 -0.2888326 1.160479
-0.1136746 -0.3114157 1.222751
-0.7164857 -0.5171489 1.308082
0.3051522 -0.4397303 1.38811
-0.07226527 0.007864457 0.9308549
-0.1771843 -0.0904831 0.9932263
-0.5421058 -0.5261534 1.425608
-0.4875585 -0.2118125 1.119935
-0.4006104 0.01656005 0.7710201
-0.09761034 0.04253775 0.8717872
-0.1383417 -0.05212664 0.9622905
-0.6543193 -0.03736024 0.7387363
-0.657069 -0.2346299 1.062394
-0.5592074 -0.02172073 0.7756601
-0.7606977 -0.3754663 1.222249
-0.5049442 -0.2281663 1.114191
0.04395301 -0.07580317 1.084399
-0.4352952 0.0335108 0.7170635
-0.9304046 -0.6720514 1.495029
-0.2439308 -0.0119367 0.8808003
-0.4470623 -0.283028 1.223301
0.0728655 -0.321822 1.202761
-0.2617862 0.06498571 0.7609069
-0.15968 -0.384732 1.290495
-0.129137 -0.3872309 1.27378
-0.1625956 -0.2063489 1.182931
0.3583745 -0.369611 1.390384
-0.2990543 -0.03277304 0.8611406
-0.3760442 -0.01895205 0.5908487
-0.3405979 0.08519937 0.6864517
-0.7105435 -0.06670804 0.8075094
-0.5033855 0.06387166 0.6136696
-0.5287735 0.01384311 0.7317162
0.3098258 -0.4490336 1.404096
-0.6247609 -0.07428803 0.8389082
0.02188474 -0.3131149 1.209055
-0.6955112 -0.6897131 1.529373
0.03474267 -0.2048988 1.158126
-0.0757842 -0.6855626 1.535408
-0.7518171 -0.1521579 0.9255909
-0.6561623 -0.09275173 0.8606229
-0.4612609 0.07188804 0.6558991
-0.631609 -0.1066722 0.8915922
0.284564 0.1283716 0.8594092
-0.0935636 0.03123196 0.8795457
-0.3171596 -0.004837616 0.8386021
-1.068402 -0.4966848 1.174714
-0.5039311 0.06622078 0.6380748
-0.02602342 -0.4846264 1.317053
-0.6119459 -0.4658471 1.372707
-0.5756646 -0.1540884 0.9752992
-0.4531536 -0.2331439 1.167203
-0.7397744 -0.5393903 1.377121
-0.2009469 -0.2202073 1.172677
0.1109841 0.1257958 0.7978629
0.532701 -0.3208358 1.365991
0.4415104 -0.1207477 1.204788
-0.07054248 -0.06990255 1.027018
0.1823317 -0.6990641 1.631496
-0.5360575 -0.1443802 0.9021804
-0.5162585 -0.1291665 0.9509868
-0.649159 -0.8087228 1.783977
0.005409248 -0.08776861 1.088053
-0.07646609 -0.09377977 1.080798
-0.5602722 0.04666123 0.6654294
-1.179932 -0.6230704 1.488487
0.007185985 -0.44149 1.300253
-0.1798633 -0.5088551 1.374084
-0.7305679 -0.1509568 0.9417437
-0.0659991 -0.1759471 1.169852
-0.0719181 0.09107665 0.8209423
-0.2546485 -0.03787212 0.8917602
0.06975639 -0.4259973 1.290373
-0.607653 -0.6306849 1.46611
-0.5314611 0.03090104 0.7158236
0.08896773 0.06549156 0.8468289
-0.04407867 -0.3093083 1.211661
-0.1065326 -0.5055953 1.369874
-0.4980199 0.01714839 0.7357915
0.6908689 -0.4264306 1.723216
-0.7291375 -0.2195292 1.025552
-0.7189235 -0.6710728 1.591633
-0.6060684 -0.1433738 0.9490193
-0.5641443 -0.4091105 1.35717
-0.2211907 -0.01799589 0.9300721
-0.7787423 -0.5603684 1.519153
0.1764208 -0.5453025 1.352065
-0.6329948 -0.1071566 0.8917741
0.08464642 -0.4468221 1.279774
-0.953487 -0.614597 1.504738
-0.6961437 -0.5298061 1.515894
0.2826267 0.1062348 0.9468979
-0.06428714 -0.2280715 1.182649
-0.3513932 0.09114304 0.673577
0.4570256 -0.2090692 1.288807
-0.5775189 -0.5266335 1.479851
-0.09797429 0.1662162 0.6851751
-0.3056122 -0.06033703 0.8967984
-0.3791583 -0.03607693 0.862874
-0.2889861 -0.06532517 0.9012511
-0.1061693 -0.1349613 1.129246
-0.5193079 -0.09977093 0.9136192
0.6173747 -0.587235 1.915522
-0.1495544 0.0352617 0.8869883
0.0842384 0.167829 0.7655624
-0.2468541 -0.2686501 1.246828
-0.4390686 -0.01478486 0.7799769
-0.1480643 0.03416283 0.8783419
0.1626986 -0.3375666 1.213292
0.5672231 -0.09129081 1.217462
-0.2332194 -0.1077608 1.05039
-0.5071113 -0.5874798 1.440764
-0.340102 0.1255982 0.6432853
0.0564669 -0.3947383 1.258836
0.6328369 -0.5782403 1.917555
0.01133383 0.008253226 0.750165
-0.07372583 0.1409714 0.7261755
-0.3990306 -0.1057749 0.9585574
-0.3586652 0.04279426 0.7467702
0.5800314 -0.177531 1.343637
0.2983337 0.09499299 0.9534311
0.117476 -0.3519879 1.225201
-0.1103233 -0.2534265 1.20845
-0.07506156 -0.1133525 1.103115
-0.7695137 -0.556831 1.517984
-0.2688817 -0.2721145 1.23596
-0.9658304 -0.5897314 1.477059
-0.273688 -0.0001286908 0.7853231
-0.06115651 -0.06477024 1.054097
-0.03821294 -0.4839742 1.316592
0.5127153 -0.02358316 1.119332
-0.233842 -0.3506109 1.294471
-0.2968466 0.06262164 0.7487764
-0.0501455 -0.1686616 1.133197
-0.1735756 -0.08072369 1.076837
-0.6919023 -0.06736006 0.7834323
-0.003113337 -0.32518 1.228579
-0.1376985 0.1016008 0.7635216
-0.1923178 0.1431171 0.6712444
-0.6267301 -0.07462869 0.8404025
0.1370854 -0.5236177 1.32742
-0.09658489 -0.06702273 1.072114
-0.2554925 -0.2345429 0.8140173
0.06987635 -0.2590312 1.172221
0.1398034 0.1318513 0.8139102
0.4405175 -0.1801475 1.232725
-0.6851897 -0.09696729 0.8548391
0.6683449 -0.1657251 1.355826
-0.1215711 0.1667464 0.6953853
-0.03284989 -0.5881216 1.414582
-0.1457804 -0.1513079 1.13985
0.3743514 -0.2931127 1.304751
0.7767495 -0.4867816 1.76161
-0.4352035 0.04156125 0.7201014
-0.7429529 -0.5433303 1.389149
-0.2378366 -0.3544247 0.7994748
0.1514547 -0.3850589 1.218818
-0.2116398 -0.4741325 1.37668
0.629691 -0.5760455 1.908614
-0.04811185 0.1338363 0.7509776
0.0681909 -0.1545407 0.6845998
-0.7308831 -0.4375594 1.243148
-0.3385538 -0.01413517 0.833887
-0.8222846 -0.4062731 1.276397
-0.3119724 0.04379767 0.7667164
-0.15614 -0.1640176 1.173713
-0.5275856 0.01282414 0.725374
0.03138743 -0.1111144 0.7652615
0.1642753 0.1598005 0.8004327
0.2347259 0.1724612 0.8697336
0.04968912 -0.4868461 1.330023
-0.3708482 0.1010363 0.6290246
-0.4000539 0.03673522 0.7350184
-0.2115686 -0.2305508 1.054696
-0.3235418 0.05408528 0.7487954
0.3534805 -0.07925346 1.106659
-0.1301376 -0.08720446 1.036137
-0.8226218 -0.2273246 1.016964
-0.3003998 0.01962831 0.7979594
0.4380532 -0.3478066 1.379173
-0.5202116 -0.1299355 0.9588247
-0.2967739 -0.008818973 0.8400716
-0.03901903 -0.485815 1.320671
0.03014115 -0.5013087 1.3272
-0.09733376 -0.3173213 1.240134
0.188909 -0.4127921 1.270265
-0.07415602 -0.2932602 1.290165
0.1085281 -0.01085929 0.7927321
-0.09933905 -0.2560702 1.240647
0.03176858 -0.2486697 1.163141
-0.09605175 -0.3925107 1.286591
-0.07991632 -0.3463436 1.251435
0.4819926 -0.3060507 1.339478
-0.3818058 -0.01472756 0.8260254
-0.5010501 0.001908546 0.7589594
0.02402162 -0.2262388 1.141498
-0.03766736 -0.07411961 1.053825
0.01685641 -0.3506248 1.23692
-0.1202249 -0.2263447 1.196659
0.6585031 -0.1646772 1.339716
-0.1406202 -0.2178341 1.21512
0.1721807 -0.4859925 1.330202
-0.1044246 -0.1936889 1.168839
-0.4320824 -0.4497526 1.388237
-0.1150704 0.1598262 0.6748987
-0.03406725 -0.2819697 1.199759
0.08300641 0.1400797 0.7736883
-0.5843485 -0.2013851 1.040998
-0.02995092 -0.1324281 1.117191
-0.2841707 -0.1113348 1.042299
-0.1813029 -0.6552356 1.520733
-0.0104482 -0.496436 1.317686
0.4213127 -0.06493615 1.109421
0.08558933 -0.4764164 1.288861
-0.119288 -0.228932 1.19809
-0.03814632 0.005186967 0.960995
0.2451116 0.05665663 0.9380637
-0.4754446 -0.0283625 0.8156474
0.6629184 -0.1656317 1.346565
0.6086118 -0.5782301 1.890618
-0.5237624 -0.3091966 1.260857
-0.5149489 0.0702714 0.6065937
-0.1753369 0.01201509 0.9050804
0.07383169 -0.5720661 1.372385
0.07425605 -0.5715687 1.371554
-0.2984694 0.09751715 0.7098983
0.4296453 -0.06429679 1.127861
-0.2091729 -0.008929742 0.9223228
-0.5032022 0.02069529 0.7250025
0.113248 -0.1666532 0.69841
0.3552179 -0.3683221 1.380255
-0.112601 -0.3136092 1.23937
-0.1601778 -0.3818932 1.279124
-0.03420423 -0.570435 1.369702
-0.6817065 -0.2980429 1.153238
-0.3244999 0.1265264 0.6307938
0.1278648 0.1387291 0.8042419
-0.256067 -0.02544168 0.8888769
-0.03492711 -0.04994784 1.152959
-0.5425605 -0.09945495 0.9043018
-0.002670932 -0.1853828 1.134278
-0.3272052 -0.1983153 0.9179714
-0.4230084 0.02191436 0.7460002
0.0680423 -0.2574173 1.159257
-0.5897831 -0.4568174 1.170091
0.5156327 -0.1949768 1.367051
0.0564324 -0.1966701 1.147963
0.1301386 -0.3719959 1.207811
-0.5258168 -0.442564 1.400396
-0.02079322 -0.6723621 1.539258
-0.6996197 -0.06698162 0.7936035
-0.08971006 0.08708441 0.8249984
-0.07717223 0.07168397 0.8433226
0.4350395 -0.06441146 1.139634
-0.7398904 -0.4010909 1.265158
0.4940343 -0.1750741 1.294197
-0.2308909 -0.3443329 1.268241
-0.2455403 -0.1606192 1.099611
-0.03511651 -0.4303642 1.282322
-0.3042508 -0.1844304 0.8596769
0.2414923 0.1319431 0.9254797
-0.2694285 -0.1475621 0.8418336
0.04314033 -0.2589409 1.16102
-0.08827223 -0.06124522 1.110498
-0.1058816 -0.259248 1.216782
0.6012447 -0.2227945 1.405769
0.03675628 -0.5809481 1.359854
-0.1680125 0.03411803 0.8321533
-0.5666582 -0.07991543 0.8634158
-0.4962146 0.01903042 0.7357353
0.08505721 -0.4748572 1.284858
-0.230917 -0.3444805 1.268544
0.2277316 -0.3318135 1.219428
-0.2503563 -0.2580452 1.220566
-0.6044345 -0.625931 1.455111
-0.08580878 -0.05721923 1.019511
-0.3209162 0.1236455 0.6250243
-0.08625795 -0.2847678 1.223752
-0.7195525 -0.4724781 1.407495
0.420276 -0.7426931 1.783584
-0.2461433 -0.1607634 1.094793
-0.5157888 -0.5447838 1.412958
0.0550804 -0.3930532 1.252078
-0.2262852 -0.4102205 1.368918
-0.106221 0.1406669 0.7103034
0.02872603 -0.494358 1.305225
-0.1648783 -0.3890505 1.312858
0.1151255 -0.3479877 1.211113
-0.735034 -0.4414927 1.250645
-0.1530072 0.1361728 0.6992455
0.3655594 -0.4232804 1.441136
-0.6485237 -0.04758338 0.7912356
0.2104922 -0.4904476 1.346602
-0.2374237 -0.1004735 1.028359
-0.03522382 0.07672954 0.8207164
-0.1751748 -0.2224343 1.132952
0.1675793 -0.4736878 1.30069
-0.6535803 -0.03737024 0.7378641
0.4679288 -0.2114402 1.313382
-0.2806375 -0.1547724 1.016551
0.4324153 -0.1197473 1.183456
-0.609435 -0.1410563 0.9500704
0.01330276 -0.06881195 0.7797953
-0.1767468 -0.3000611 1.259724
0.4223496 -0.01552199 1.062607
0.2774663 -0.4810831 1.419778
0.5543957 -0.1095161 1.269485
0.1620926 -0.470788 1.286408
0.4167306 0.03691248 1.016386
0.5086961 -0.3572489 1.3982
-0.5628265 -0.07263891 0.8438983
0.1556472 0.1539413 0.8292642
-0.6442632 -0.03124285 0.7603201
0.6081715 -0.6926636 1.910246
-0.07289206 -0.1128395 1.118235
-0.09940536 -0.3177468 1.23481
-0.137173 -0.2910619 1.236203
-0.1611187 0.08966901 0.7869362
0.3707385 -0.3812345 1.390521
-0.4773929 0.05490401 0.6872913
0.05021471 0.1349055 0.759929
0.3272496 0.07352433 0.991919
-0.5570775 -0.02192333 0.7735937
-0.3840117 0.04677013 0.7328194
0.6976037 -0.3596867 1.588671
-0.3156493 0.02904783 0.7992247
-0.04575105 -0.1004197 1.071654
-0.3100729 -0.1492113 0.8244014
-0.00412352 -0.3249246 1.217351
-0.1871312 -0.02859386 0.9502153
-0.2471094 -0.5799096 1.472961
0.004348258 0.04419143 0.7708787
-0.2018755 -0.1715188 1.096655
0.238871 0.1343921 0.8913942
0.2909863 0.1328063 0.8278126
-0.5859413 -0.1202499 0.9427742
0.01951811 -0.3530006 1.255428
0.3181922 0.09353544 0.9463354
-0.2693843 -0.02500538 0.8979256
0.1141359 0.1244954 0.7951669
0.006427316 -0.1795978 1.130417
0.3591855 0.07562322 0.9088877
-0.07322424 0.1397124 0.7251343
-0.1814875 -0.2307981 1.178596
-0.4467143 -0.3385493 1.293625
-0.5468701 -0.1203023 0.9376979
-0.6164257 -0.6402434 1.489845
-0.452687 -0.5984315 1.491822
-0.3000288 -0.2030707 0.7573717
-0.05883009 -0.2762122 1.216343
-0.5174733 -0.1296082 0.9528173
-0.6914067 -0.3515448 1.21269
-0.3430115 -0.3267743 1.281597
-0.4246351 -0.3396595 1.29528
-0.2973063 -0.2941079 1.251616
-0.1863698 -0.1052325 1.045696
-0.5026191 -0.4286472 1.414229
-0.05419653 -0.5266659 1.34307
