# .PCD v.7 - Point Cloud Data file format
VERSION .7
FIELDS x y z
SIZE 4 4 4
TYPE F F F
COUNT 1 1 1
WIDTH 1552
HEIGHT 1
VIEWPOINT 0 0 0 1 0 0 0
POINTS 1552
DATA ascii
-0.3718656 -0.268912 1.222881
-0.09805795 -0.3339546 1.590048
-0.4065046 -0.274085 1.198558
-0.3419028 -0.3214184 1.328469
-0.3621079 0.09937081 1.001279
-0.1100369 0.1792226 0.9197099
-0.04816715 0.1448404 0.4387352
-0.01273556 0.009785485 0.5619133
-0.01249698 0.07502784 0.5667103
-0.2944318 0.03987623 0.9572049
0.1781393 -0.1503119 1.046502
0.186776 -0.07649896 1.164209
0.4560115 -0.366659 1.47245
0.3486009 -0.3925246 1.259257
0.3221883 -0.34481 1.306528
0.04602664 -0.3712348 1.653043
0.06809247 -0.5968891 1.912089
0.07618999 0.1586926 0.4857747
0.2998334 0.03716881 1.055643
0.2706551 0.1366543 1.012472
0.05106944 0.01267634 0.5363914
0.4446128 0.1861728 0.7892514
0.02194038 0.0621139 0.558018
0.4612602 0.2162274 0.7152906
0.2893067 0.1805258 0.8313918
0.5888389 -0.009901132 0.9804149
0.4769347 0.1289766 0.7813808
0.3237682 0.1238014 0.953594
-0.2086002 0.2023051 0.7712004
-0.09902015 0.1368975 0.5320632
-0.3526763 0.2335367 0.6821706
0.4417725 -0.3275614 1.440729
-0.06869636 -0.3636996 1.682433
-0.0269217 0.1461649 0.4347817
-0.4061144 -0.2272115 1.234174
-0.4278916 -0.2251682 1.233191
0.03042493 -0.387341 1.491772
0.3317221 -0.3156217 1.406549
-0.4741427 -0.2869631 0.9912751
-0.5478264 -0.1532872 1.014793
-0.4092638 -0.241238 0.9246765
-0.0101375 0.04444143 0.5633814
0.0223002 0.01236112 0.5442334
-0.3219564 -0.2882629 1.336667
-0.422807 0.2318607 0.6895201
0.05386633 0.04267725 0.543871
0.5367616 0.09534186 1.081807
0.6402908 -0.1394995 1.240912
0.6247325 -0.1904172 1.174979
-0.2727028 0.02471392 1.028062
0.0380877 0.074895 0.5480428
0.0613036 0.07254225 0.5235681
-0.4038607 -0.2725543 1.194313
-0.3962629 0.1424581 0.6541125
-0.3996519 0.02647351 0.6352209
0.2128698 -0.09573767 0.9537724
0.0192682 0.07526931 0.5593461
-0.2475945 -0.3404489 1.581526
-0.1963063 -0.3956967 1.618425
-0.2489057 -0.3830652 1.611506
-0.387374 0.1716768 0.803032
0.1295056 -0.1723719 1.007115
0.5922127 -0.1583675 1.265981
0.5983322 -0.1693099 1.351195
0.5737122 -0.08451005 1.289138
-0.5184014 -0.1196125 1.005369
-0.4167733 -0.1369236 0.9447891
-0.4841405 -0.1440626 0.9756917
-0.3166024 -0.006311345 1.04501
-0.3525035 -0.01084457 1.014095
-0.01273725 0.009172897 0.558525
0.5928611 0.04856467 1.159227
-0.02091656 0.06113319 0.5668781
-0.01246742 0.07434822 0.5643288
0.02659387 -0.0475199 0.6084604
-0.5510623 -0.2717246 0.9217046
-0.4373609 -0.2156625 1.198776
0.04139154 0.07883548 0.4629876
-0.002591644 0.1474755 0.4319609
-0.3700643 -0.2168446 1.224168
-0.3677328 0.2092508 0.7650035
-0.226652 0.2255444 0.7034259
-0.386258 0.05881198 0.6343037
-0.5380444 -0.2049524 0.9835656
-0.5683972 -0.2123939 0.8352035
-0.4087928 -0.2042784 1.169579
-0.4411003 -0.110857 0.9550222
0.09908663 0.123513 0.5210957
-0.4294648 -0.2112115 1.181047
-0.4524812 -0.07515058 0.7154243
-0.09537755 0.1358294 0.5081935
-0.0885955 -0.360817 1.680276
0.01250206 -0.4042894 1.678944
-0.5499399 -0.1548355 1.019081
0.643189 -0.01071208 1.072827
-0.3845936 -0.002857049 0.640273
-0.321785 -0.2726344 1.370435
-0.3537421 -0.3281824 1.359565
0.3363556 0.03095003 0.9776004
0.05089127 0.01267777 0.5384147
0.02286685 0.01266968 0.5400418
0.4581819 0.1799929 0.8082389
0.03854144 0.07428079 0.5456026
-0.4491801 -0.02341939 0.9662901
0.07742214 0.07373713 0.452929
0.08408524 0.0497184 0.5519993
0.587431 -0.05840838 1.212668
0.1163951 -0.1798682 0.9409932
-0.08823528 -0.1236836 1.040368
-0.2456827 -0.2366726 1.331297
0.4355631 0.2123518 0.7161571
-0.3879672 0.1718574 0.8041505
0.525153 0.09195191 1.053334
0.3233542 0.1229464 0.9518237
-0.008251876 -0.01980414 0.5486003
-0.3187425 0.2007053 0.7928317
0.5645401 -0.06602263 1.246849
0.3814236 -0.03912847 0.9342303
0.3848626 -0.108142 0.9310856
-0.3976291 -0.03139671 0.6327513
-0.08953038 0.1231081 0.5384087
-0.3201473 -0.1469708 1.076377
-0.4246219 0.2069644 0.7755575
-0.04721622 -0.4522844 1.842941
-0.1117328 -0.4142044 1.67055
0.3980955 0.2389467 0.8181067
0.4234351 0.148025 0.9557583
-0.4049439 -0.2386443 0.9152073
0.2154433 -0.212132 1.050438
-0.4123333 -0.05084622 0.727643
-0.1942464 -0.4095834 1.661734
-0.4474019 -0.1130757 0.9689182
0.4911607 -0.4078792 1.619538
-0.1975581 -0.3721798 1.5118
-0.3907944 0.04346218 0.6296307
0.347 -0.2811082 1.285915
-0.3691517 -0.1458924 1.005286
-0.0902207 -0.3166409 1.530468
0.3112475 -0.2611996 1.302073
0.3227528 -0.2755658 1.255323
0.3037988 0.03904045 1.078934
-0.3051488 -0.2256809 1.330377
-0.2637613 0.02090175 1.005143
0.4118839 0.09685937 1.037531
-0.2114492 -0.207901 1.179494
0.08645374 0.138309 0.4965606
-0.3908848 0.1163979 0.6444979
0.4844749 0.1826989 0.7710706
0.0007353681 0.1155976 0.6021971
0.02846663 0.1161838 0.5939418
-0.3728227 -0.2712189 1.224082
-0.4144808 -0.231533 1.250374
-0.4036445 -0.2740103 1.19725
-0.4013009 0.03622746 1.039893
0.05445173 0.04114959 0.5306892
-0.3137449 -0.007095171 1.035221
0.02508152 -0.4615605 1.521531
0.05092763 -0.01853441 0.5296903
0.3668205 0.02383048 1.032035
-0.1954135 0.02969547 1.111537
0.01956262 0.07160904 0.5411806
-0.008967991 0.0444083 0.5614801
0.3614133 0.1492454 1.011686
0.3262158 0.1506165 0.9672523
0.4192609 0.1200898 1.078434
0.5964626 -0.1606118 1.269627
0.5282232 -0.2062582 1.156721
0.372476 -0.1577116 0.9075495
-0.4115355 -0.08557659 0.6197847
-0.008136966 -0.01992914 0.5496444
-0.3353291 0.2109691 0.7578205
0.3651679 -0.08140768 0.881636
-0.2481437 -0.3438242 1.580603
0.1431274 -0.1858657 0.992324
-0.5118939 -0.2991504 0.9838994
-0.3902113 -0.1134802 0.9981721
0.54357 0.09418473 1.090997
0.03481734 -0.3031848 1.485345
0.5720491 -0.01229634 0.9460829
0.4573759 0.1674017 0.8353665
0.0553148 -0.2587774 1.424075
-0.3711955 0.09630132 1.016653
-0.4679165 0.06413823 0.9482169
-0.2258079 -0.06673323 1.134305
-0.5845524 -0.1196858 0.9670373
0.2801496 -0.2853006 1.37634
-0.2671145 0.02239285 1.010909
-0.0005681689 0.1137909 0.5965353
-0.01401787 0.008103303 0.5573513
0.2309278 -0.2467194 1.113282
0.1773028 -0.07580838 1.088806
0.001594279 0.06144708 0.5628666
-0.008240565 0.06303737 0.5666128
-0.00778872 0.04387807 0.5479747
-0.3818558 -0.05612583 0.6687188
0.007806161 -0.3934668 1.483027
-0.0930726 -0.3169946 1.543483
-0.0307794 -0.2930624 1.455763
0.3708816 -0.267211 1.232888
-0.4473155 -0.02294766 0.9639693
-0.4127658 -0.2418984 0.9274719
-0.4292186 -0.2118177 1.179068
-0.3109143 -0.2301221 1.354626
-0.5067944 -0.2792522 0.8590978
-0.5456216 -0.2703099 0.9052615
0.5549754 0.1215156 0.972757
-0.3404391 0.008812407 0.9619225
0.02309643 0.01277645 0.5430437
0.5758372 -0.2261372 1.276282
0.3750193 -0.1065263 0.9008411
0.0392084 0.07298003 0.5415869
0.3756605 -0.03918457 0.9160904
0.3179165 0.04279547 1.002917
0.3508892 -0.3738075 1.357767
-0.4205842 -0.138023 0.9463151
0.2129973 -0.04007164 0.9983236
-0.314617 -0.009045061 1.02503
-0.1961628 -0.4337035 1.742422
0.005876821 0.07583977 0.5762534
-0.5141253 -0.2885748 0.9497916
-0.5250482 -0.3214074 0.985433
-0.3781981 -0.2234907 1.237206
-0.3533281 -0.3247687 1.347244
0.02307244 0.1242684 0.6200585
-0.3691095 -0.1260561 1.012953
0.2832008 -0.1984895 1.032795
-0.1058564 -0.3940401 1.582971
-0.5903583 -0.1216079 0.9692416
0.4080148 -0.3461278 1.47368
-0.3297133 -0.1611101 0.9158821
0.262347 -0.2345643 1.31381
0.184849 -0.1904091 0.9792815
0.2110327 -0.2096594 0.9992428
-0.4798422 -0.2629648 0.8414581
-0.001062667 -0.475457 1.83205
0.01280266 -0.2943777 1.171291
0.2743978 -0.2905251 1.236239
-0.4737234 0.06231941 0.9566543
-0.08247194 -0.1166779 1.026604
0.4093804 0.09775931 1.040426
-0.4018205 -0.2339553 0.9026493
-0.4857011 -0.2916454 1.00532
-0.3245516 -0.2788648 1.375142
-0.3450949 0.01089132 0.9704214
0.3787194 0.04335269 1.024343
0.4098704 0.01707947 1.137414
0.5079767 -0.2177431 1.13868
0.3940277 -0.1876267 0.9983502
-0.01337055 0.07073732 0.5532212
-0.3987613 -0.2250428 1.194023
-0.3910225 -0.2667985 1.168725
0.5303416 0.1075983 0.9092889
0.4857991 0.1153176 0.8605007
0.5815328 -0.05556589 1.215164
0.3859613 -0.08451531 0.9318351
0.05827704 0.06700889 0.4976252
0.0233221 0.061706 0.5476069
-0.4101308 -0.180767 1.179185
0.4813374 0.03874674 1.16747
0.04869682 0.01332738 0.5279435
0.1239436 -0.1770916 1.002432
-0.3763047 0.187812 0.8132171
0.04867144 -0.008017006 0.5317507
0.3013476 -0.2182767 1.117566
-0.08644734 -0.3074327 1.505564
-0.09437188 -0.4233432 1.716328
0.00695352 -0.4817134 2.140236
-0.3515048 -0.1620457 1.091185
-0.5291268 -0.2609549 0.8744065
-0.004986361 -0.002333246 0.5463437
-0.4836815 -0.08168101 0.8733823
0.4885702 0.19294 0.8617785
-0.4072098 0.0341838 0.7628202
0.3094479 -0.2224659 1.257365
-0.4529094 0.1702119 0.8679612
-0.01820263 -0.04117537 0.5603391
0.37961 -0.08437253 0.9155227
-0.5237109 -0.2474596 0.9679899
-0.4708084 -0.2659079 0.8830289
-0.381506 -0.1082999 0.9710489
-0.4347748 0.1320461 1.13925
-0.4395149 -0.04962019 0.8658253
-0.3832227 -0.03912919 0.7020523
0.02877258 0.116854 0.5996543
-0.4012159 0.03929277 1.021847
0.5691691 -0.2467077 1.281549
-0.1949308 -0.1864885 1.091372
-0.4597127 -0.07753655 0.7382816
0.5490522 -0.04802313 1.079119
-0.4272268 -0.1455227 0.956412
0.001354174 0.0611404 0.5512869
-0.01720799 0.006268942 0.5510316
-0.4053204 -0.3634233 1.501416
-0.3446878 -0.01764276 1.005636
-0.2109774 -0.1662725 1.103038
-0.09083705 0.1199289 0.5464736
0.02174241 0.06144822 0.5586865
-0.01059094 -0.004483667 0.5602269
0.0398821 0.08760977 0.506066
0.5996546 -0.04978087 1.44031
-0.4120702 0.03397857 1.075933
-0.02067965 0.05894926 0.5665419
0.3807859 -0.0377918 0.9368041
0.02179352 0.06133404 0.5575
0.02187752 0.06114748 0.5558718
-0.4013471 -0.2217695 0.9196783
-0.2411516 -0.3360614 1.568286
-0.4243778 0.03537723 1.10332
0.5248522 -0.2253558 1.190784
0.5519234 -0.238681 1.262972
0.02533053 -0.4433438 1.404258
0.2183625 -0.09533563 0.9629135
0.4879007 0.2014713 0.7827941
0.03681889 0.06157066 0.5530311
0.0402682 0.1487179 0.434743
0.627328 -0.0658366 1.333828
0.2000932 -0.2114987 1.038247
-0.3489283 0.1845474 0.8531377
-0.4500005 -0.5094079 1.290115
-0.332562 -0.01602499 1.069
-0.3048841 -0.1911423 1.193563
-0.3744975 -0.1373676 1.028732
-0.5384535 -0.293898 0.9018877
-0.4794096 -0.2696059 1.006589
-0.481575 -0.3023683 0.9185749
-0.429098 -0.07762782 0.9707818
0.4072265 0.1727708 0.8036807
-0.3631986 -0.3090506 0.9220093
0.7181237 0.07671591 1.232353
0.4022699 0.1919461 0.7948384
0.03689437 0.06135446 0.552095
0.5918564 -0.05996709 1.215245
-0.4642465 -0.04753934 0.8958085
-0.006378551 0.1466056 0.4312987
0.335723 0.04716804 1.329659
0.1915129 -0.05959063 1.204401
0.6133358 -0.01835582 0.9401089
-0.4451534 -0.0701028 0.9548754
-0.3688522 -0.006602551 0.6486832
0.5821744 -0.008272737 0.969008
-0.2421846 0.1865112 0.877088
0.6034688 -0.2157677 1.197054
0.1528054 0.2074833 0.7769156
-0.3108332 0.009625535 1.021148
0.6213543 -0.1539857 1.133582
-0.2579465 0.01159614 1.033145
-0.292383 0.09008928 0.9464855
-0.2778513 0.1195374 0.9772334
-0.3705306 0.03860655 1.010094
-0.2955907 0.03400579 0.9605573
0.04488533 0.09836862 0.5666127
-0.2958823 0.04172608 0.9610553
0.5819845 0.1063791 0.9773233
-0.4154486 -0.09150012 1.008874
0.3669441 -0.2957553 1.264963
-0.3496767 0.1846864 0.8544651
-0.3587084 0.1547969 0.9787098
0.2629392 0.1663722 0.8912547
0.3115331 -0.3569081 1.344915
0.3255371 -0.381972 1.267226
0.5068652 0.1059052 1.001309
0.468861 0.1938452 0.8337127
-0.4330145 0.1704753 0.9348804
-0.3905132 0.1529032 0.9764779
-0.3498345 -0.01128192 1.049544
-0.4144772 -0.07339479 1.037358
-0.2315462 0.009052531 1.056539
-0.4826006 -0.124988 1.001637
0.6577094 -0.1300474 1.248237
-0.3604749 -0.2873797 1.257923
-0.00149664 -0.04395306 0.5655294
0.07727386 0.1580743 0.4816333
-0.4119837 -0.186714 1.184
0.0128355 -0.3505757 1.658763
-0.3147611 -0.2219217 1.356438
-0.3323142 -0.306927 1.52003
0.4590117 -0.07572283 0.9492081
0.2050747 0.2313711 0.6730907
0.1722704 0.2289237 0.6814511
0.2481838 0.0216353 1.352341
0.2526358 0.07828484 1.172242
0.2628759 0.05649392 1.290654
-0.375375 0.2194435 0.739463
0.4119074 0.1750428 0.8145336
-0.4409952 -0.07004637 0.9472517
-0.1812973 -0.4860502 1.909534
-0.320239 -0.2587286 1.302095
0.4951896 0.1333895 0.8345345
0.3947649 -0.09070963 0.9679092
0.5763032 0.06040692 1.045127
0.3107007 -0.3262748 1.241179
0.06927039 -0.01654326 0.545373
-0.07939558 -0.370952 1.728657
0.4813605 0.07413737 1.165042
-0.5172656 -0.2743337 0.8994847
0.0003510209 0.1278759 0.6256475
0.3088037 -0.310673 1.392711
0.3119973 -0.224319 1.28308
0.3452107 -0.2522516 1.244793
-0.4303134 0.1693681 0.9308695
0.1615542 0.2047753 0.771842
-0.3761799 0.2066972 0.7818292
0.3799203 0.1765341 0.8358015
-0.393616 -0.08740331 0.9607074
-0.1974955 -0.1246553 1.060115
-0.3887169 0.03767551 0.6272444
-0.2300575 0.00816383 1.046739
0.6347159 -0.12597 1.202978
0.5047801 0.1327623 0.8093358
-0.2793535 0.02697646 1.003711
0.5719396 0.1190965 1.135141
-0.01351842 0.1472459 0.4313686
0.3203819 -0.2852008 1.233474
0.2432494 0.2221438 0.6975091
0.3468297 -0.2631369 1.2382
0.3411953 0.1507971 0.9469664
-0.4255141 0.2137218 0.7103341
-0.458085 0.2492824 0.7041728
-0.4289224 0.144002 1.022663
0.2589805 0.1540428 0.9440933
-0.3098319 0.238883 0.657756
-0.2286713 0.2369402 0.6482446
0.2125974 0.2103854 0.7493079
-0.4428524 -0.1102314 0.9555645
-0.2446647 -0.2295009 1.304326
-0.1812958 -0.4880317 1.915371
-0.4281746 0.2010861 0.7025249
-0.3964972 0.02376334 0.6339912
-0.3963647 0.1166693 0.6497778
0.05277776 -0.02003851 0.5429403
0.6122436 -0.2205344 1.217704
-0.1223227 -0.6889753 1.972179
0.4517746 0.1403569 0.9304888
-0.386676 0.1501442 0.9656377
0.286248 0.1995816 0.7726836
0.3082529 0.2168367 0.7093258
0.3678888 0.2076279 0.6910912
0.3340289 0.220054 0.6655017
-0.3322209 0.2344874 0.6821156
-0.2292068 0.2323206 0.6833893
0.2642653 0.1935358 0.8005515
-0.5675756 -0.2618031 0.8662951
-0.5661901 -0.2070526 0.8142176
-0.1982111 0.2327196 0.6916677
0.3239602 -0.07555526 1.435855
0.1866827 -0.07382818 1.159694
0.6065676 -0.05952478 1.202775
0.6401951 -0.3605057 1.259629
0.2635785 0.1666569 0.8842459
0.2522406 0.07833886 1.165551
0.3833315 0.001779759 1.00369
0.1707546 0.2303582 0.6830646
0.1847013 0.2271552 0.6803532
0.3087223 0.2086652 0.7513071
-0.3784963 0.1669113 0.9139367
-0.08568051 0.148309 0.5134826
-0.3070486 0.2155115 0.7334373
-0.228175 0.2042873 0.8190804
-0.2361225 0.2019906 0.8575478
-0.3997683 -0.1018307 0.9476026
-0.4056366 -0.03721981 0.6496178
-0.5617613 -0.2064967 0.8092855
-0.2149103 -0.1288196 1.131282
-0.1996778 -0.3972582 1.622955
-0.395198 0.03767585 0.6359142
-0.3676896 0.08670072 0.6561614
0.6727661 -0.06973021 1.208599
0.5471647 -0.3048141 1.066843
0.2588949 0.1540235 0.9453545
0.5592197 0.04568428 1.089294
-0.527543 -0.2513992 0.9715999
0.2835903 0.1986934 0.7657775
-0.5126413 -0.2989092 0.9341106
0.3288091 -0.3123769 1.393649
-0.3023177 0.2124315 0.7531553
-0.4683971 -0.05136579 0.9029824
-0.3959841 -0.02479399 0.6287213
-0.3787099 -0.02391484 0.6414307
-0.3045806 -0.221845 1.325565
-0.398656 0.03836431 0.6402828
0.158705 -0.1695593 1.018027
0.6191471 -0.2237861 1.237465
0.5445548 -0.0628742 1.194731
0.2531036 0.2205617 0.7060581
-0.204713 0.2188133 0.7435088
-0.4661746 -0.05077061 0.9010236
0.5507357 0.05295639 1.002735
-0.391614 0.08776675 0.6425771
0.5248368 -0.2590525 1.361944
-0.5082765 -0.2941176 0.9777969
0.398746 0.00157657 1.045665
0.5706208 -0.06794803 1.261786
0.5280465 0.1280209 0.9284102
0.6053722 0.08900142 1.015145
0.5426051 0.2065047 0.8694811
0.3200812 0.2217029 0.7503244
-0.3954348 -0.1039165 0.9629575
-0.4422646 0.2229465 0.7481387
-0.03504412 0.122193 0.4810807
-0.4030763 -0.09958778 0.9492102
0.2695793 -0.2938934 1.303081
0.2018913 -0.09682259 0.9755025
-0.3984834 -0.03666063 0.7933909
0.2369225 -0.01045009 1.130399
0.002760518 0.06166238 0.5628833
-0.4111384 -0.02311189 0.6481335
0.3202372 0.1801872 0.8273292
-0.4248674 0.1463685 0.9368622
-0.5263508 -0.248376 0.9700252
0.002663234 -0.4901002 1.839891
-0.4808342 -0.2680064 0.8408542
-0.3892176 0.05976453 0.638918
0.05077009 -0.006605547 0.5346507
-0.3866996 0.02729647 0.633158
0.5151975 0.1256335 0.9065471
-0.1486869 -0.1957716 1.170023
-0.4819076 -0.07860024 0.7578741
0.2268149 0.2082342 0.7423117
0.2002886 -0.1136864 1.031313
0.6325218 -0.2312228 1.268761
-0.3468496 0.1721816 1.042576
0.06108033 0.07191893 0.5253211
-0.3400048 -0.1337062 1.009091
-0.402573 -0.0332098 0.7412482
-0.08771028 -0.4337215 1.73766
0.5370726 -0.2302782 1.215376
0.3420465 0.1951752 0.7281219
0.2138038 -0.1809699 1.076606
0.5405334 -0.05795372 1.162855
0.006451805 0.1203914 0.5960302
0.02617775 -0.5598394 1.769478
0.07738685 0.07820979 0.4296922
0.6943744 -0.1032409 1.251306
0.2125736 -0.1173308 1.089262
-0.2688847 0.01882895 1.01692
-0.4493523 -0.1144639 0.9772823
0.489271 -0.2435912 1.268562
0.6256059 -0.2318096 1.271213
-0.2593392 -0.3122973 1.609263
0.3177158 -0.288346 1.315979
-0.4105498 -0.09279602 0.9487613
0.5071892 0.08749767 1.015462
-0.5097247 -0.294524 0.9000387
0.4079547 0.1946356 0.8062733
0.6376589 -0.1250995 1.206507
-0.3897838 -0.2635765 1.205013
0.2162511 -0.0430613 1.018337
0.1344158 -0.218694 0.9327209
0.0856609 0.1449368 0.4935904
0.02548996 -0.03799444 0.4939746
0.001673896 -0.04472414 0.5597753
0.2669061 0.1689599 0.9049073
0.3569325 -0.2504474 1.159181
0.01949338 0.07443601 0.556233
-0.01867753 -0.04030103 0.5595673
0.02813597 -0.3460511 1.533153
0.05249505 0.01238993 0.5412765
0.2435549 0.2034527 0.7562503
0.3142335 -0.3698236 1.331665
0.5206339 0.03704967 1.254332
0.3892637 0.1465246 0.9545106
0.4661884 -0.3069975 1.465428
0.3298707 -0.2964506 1.255088
0.3677481 0.2087119 0.6924643
-0.3859163 0.1381623 0.6397721
-0.2366257 0.2216488 0.6898569
-0.4108194 -0.004066597 0.6165893
0.02277097 0.06181727 0.5534256
0.2704953 -0.2312458 1.293413
0.06633651 -0.04092655 0.5428016
-0.4082023 0.072701 0.7845704
-0.01028331 0.06119047 0.567156
-0.4139009 0.1190291 0.6765581
0.3554051 0.02266376 1.007808
-0.0311246 0.09057686 0.5718346
0.5883645 -0.1629112 1.321016
-0.6081432 -0.1275998 1.004239
-0.2779252 0.02487674 1.044682
0.298015 0.01404891 0.9690354
0.02603817 0.1176675 0.6086665
0.2354659 0.2234471 0.6880677
0.534674 0.04411214 1.322717
0.211923 -0.03876607 1.006245
-0.02155172 0.06075147 0.5686724
-0.01974901 -0.04017057 0.5634575
0.05128699 -0.1974474 1.120147
0.5739079 -0.1767221 1.336263
0.2294073 0.2168657 0.7230629
-0.5110797 -0.28929 0.9656885
0.2128033 -0.2436604 1.025335
-0.4500025 -0.02451846 0.9664936
-0.4899624 -0.4296749 1.275959
0.2017432 0.2257925 0.6917239
0.383415 -0.02657494 0.9817649
0.3979649 0.2110279 0.7047929
-0.2698786 0.1484241 0.9620509
0.127478 -0.1796943 1.017365
-0.4007552 -0.03584228 1.675033
0.6282508 -0.02246168 1.421039
0.6982064 -0.01114403 1.348583
0.4285431 -0.3009781 1.409034
0.0393261 -0.3344302 1.633525
0.2267132 -0.2618005 1.089492
-0.4304598 -0.1976995 1.249858
-0.253058 0.2188023 0.8770372
-0.4917153 0.2119237 0.7542638
0.1487097 -0.1923342 1.007309
0.2252852 0.2065287 0.7296382
0.4340652 -0.07190056 0.9817744
0.01851394 -0.04459361 0.5558546
0.2223476 0.223921 0.695321
0.001289333 0.1165439 0.6137443
0.02071276 -0.0429735 0.5419747
0.4977286 0.1253716 0.9966962
0.5110535 0.1907389 0.8344358
-0.008749417 -0.01982321 0.5517437
-0.3893248 -0.02880602 0.7203305
0.05267907 0.1434867 0.4491
0.4825735 0.1533343 0.8451439
-0.57293 -0.2641351 0.8816308
0.06196635 -0.0382598 0.5241086
0.3102479 -0.3681399 1.303685
-0.1098102 0.08300918 0.5278133
0.375005 -0.2098579 0.7333674
-0.417661 0.2309931 0.7391555
-0.0003764006 0.1177623 0.6173281
0.05152928 -0.01997454 0.5467472
0.5902691 -0.1654595 1.32995
0.08409607 -0.1943199 0.9858114
-0.01125939 0.0110466 0.5606578
0.5939568 -0.05853847 1.178381
0.2653514 0.1652913 0.8938599
-0.4728397 0.18827 0.7534575
0.02045396 0.04315032 0.5526009
0.3854343 0.1938573 0.7243041
0.2795183 0.1494425 0.9702164
-0.03735283 -0.2495974 1.270431
0.09885518 0.06466006 0.4532484
0.2369924 0.2002523 0.7882246
0.3225621 0.1228634 0.9578148
-0.2580862 0.2010479 0.7882058
-0.09265919 -0.3222754 1.54416
0.3118233 0.1170568 0.9094127
0.5194412 0.02166153 1.255827
0.3243895 0.04517175 1.039653
0.05319498 0.0447709 0.5461466
-0.2793351 0.02719854 1.004406
-0.4821866 0.2291782 0.7190265
-0.1535527 -0.337542 1.355259
0.6737514 -0.2926528 1.280152
0.062463 0.09329309 0.5389288
-0.3802275 0.2162462 0.7501926
-0.3167197 0.1529557 0.9905005
-0.2158614 0.2332865 0.6732883
0.5081717 0.1895417 0.8300458
0.242811 0.2232137 0.7034917
0.6057451 -0.2189786 1.211718
-0.02132176 0.07534981 0.5680682
0.08011794 0.0747367 0.4613109
0.3552124 -0.2966896 1.32819
-0.0659142 0.1435365 0.4543206
-0.3572683 0.2289491 0.701714
-0.1854682 0.2319117 0.6955356
0.01981745 -0.04450778 0.5520266
0.2962696 0.01349474 0.9612343
0.3350395 -0.07855012 1.501106
0.6644028 -0.1417234 1.286773
-0.07927205 0.03358886 0.548461
0.5986206 -0.2345318 1.318258
-0.3175333 0.2001126 0.789917
0.2046732 -0.1797619 1.046228
-0.4374588 0.2051758 0.7073231
-0.375156 -0.3198936 0.9481192
-0.458541 0.2049052 0.7985529
-0.3855739 0.2338085 0.6820954
0.4127691 0.1193628 1.052315
-0.4089431 -0.06053211 0.5946426
-0.1008614 0.1248124 0.5301369
0.2156385 0.2146564 0.7402892
0.5290502 0.09173353 1.025125
-0.560694 -0.2061654 0.8085269
0.1341121 0.2292849 0.6840169
0.05234077 0.01235647 0.5405904
0.392208 0.1012664 1.045976
0.4370386 -0.2863004 1.362851
0.3917817 0.1876218 0.777124
-0.239787 0.1844507 0.8682162
-0.4832534 -0.07887189 0.7630338
-0.3872019 -0.05035764 0.6919308
-0.22184 0.2431646 0.6653261
-0.1229564 0.161506 0.9656567
-0.403643 0.04079315 0.6465131
-0.3141693 0.2301325 0.6995704
0.3785324 -0.08764607 0.9217439
0.07858949 0.1262084 0.4482164
-0.1949861 0.2301773 0.6837814
0.6003773 -0.1119347 1.424957
-0.2118913 0.2125765 0.7997008
-0.02598431 -0.4270375 1.718672
0.5136048 -0.09789082 1.199439
0.08534817 0.06206209 0.4327537
0.5664975 0.0820566 0.9455886
-0.1042476 -0.3923275 1.601238
-0.107633 0.05682043 0.5215934
0.6077579 -0.1689064 1.293894
0.1823134 0.1988444 0.7926657
-0.349918 -0.2827964 1.308014
0.08285664 -0.1314075 1.042938
0.6408753 -0.2257345 1.289427
0.3270397 0.2174494 0.6903862
-0.4763409 0.1612807 0.9208339
-0.2925508 0.03518146 0.9501893
-0.4486353 0.229002 0.7217885
0.4109413 -0.3470256 1.424558
0.02079297 0.07672805 0.5603033
0.01666682 -0.4414072 1.572327
0.22067 -0.2605308 1.04763
-0.3186617 -0.08851447 1.118859
0.4538507 -0.3599563 1.414591
-0.3622867 -0.2765378 0.9224413
-0.5262724 -0.2483473 0.9711939
0.1487598 0.2257066 0.6945531
0.6578465 -0.01148997 1.265296
0.3222995 0.04494111 1.031428
-0.3889565 0.08539551 0.638853
-0.4759695 -0.4182932 1.241284
-0.5168009 -0.283835 0.8915854
0.2949808 -0.1516945 0.7836699
-0.3023835 0.2237733 0.7023355
-0.4172329 -0.04553829 0.6017826
-0.3766379 0.02558313 0.6228713
0.253527 -0.3782819 1.229877
0.2898625 0.0197711 1.468672
0.7950789 -0.1709127 1.546414
-0.4476213 -0.0249637 0.9627293
-0.4068811 -0.03425387 0.8030827
-0.3158948 0.08585194 0.987736
-0.2736221 0.1805606 0.8678797
0.02060113 0.04341146 0.5530139
-0.5920743 -0.241882 0.846831
0.2023427 0.2265252 0.6946171
0.0287751 -0.3972071 1.61555
-0.5396709 -0.2722888 0.9028607
-0.403832 -0.2730823 1.190379
0.01784739 -0.3930067 1.624955
0.08638958 0.06374937 0.4549848
0.5064387 0.210191 0.8820466
0.7869318 -0.1840819 1.517027
0.3015623 -0.3185744 1.275579
-0.3762688 0.05355514 1.031385
-0.4181845 -0.1923348 1.28954
0.01743488 -0.3815109 1.580367
0.6141717 -0.03997666 1.302452
-0.2939942 0.03540741 0.9584191
0.04442955 -0.3328053 1.621323
-0.6356732 -0.2779647 0.9291072
0.2654547 0.1772648 0.8554799
-0.3008006 0.08221594 0.9453297
0.5817779 -0.008483927 0.9687285
-0.2481032 0.1922311 0.8915899
0.3345989 -0.2555853 1.257892
-0.1929347 0.2354936 0.6929392
0.5191452 0.02054358 1.250542
-0.3377864 0.2188217 0.727017
-0.02275799 0.0771045 0.5975398
0.3143096 0.189839 0.8160256
-0.2716367 0.1785473 0.8568361
0.3591802 0.21484 0.7115738
-0.2081023 0.2366856 0.6675915
-0.01892985 -0.003851074 0.550397
-0.07228108 0.1393546 0.4386015
-0.3267716 0.201342 0.7910828
0.1373782 -0.1755946 0.9190967
0.4193993 0.09773397 1.04851
0.0269306 -0.2926364 1.503195
0.2960225 -0.369139 1.210873
-0.01171445 0.05909863 0.5661213
0.06893397 -0.1720066 1.065234
-0.4792609 0.2499322 0.7183901
0.3816133 0.1713863 0.8644178
0.2293765 0.2107592 0.7436109
-0.01043917 0.06116415 0.5678644
-0.437199 0.2075298 0.8078301
-0.4474025 0.1256217 1.101537
0.234303 0.1567885 0.9469846
0.1618453 0.2050685 0.7736129
-0.3068092 0.2032574 0.787419
0.3501195 0.02177255 1.000122
-0.3947598 0.08688907 0.6454703
0.2776955 0.03108051 1.285367
0.03092829 -0.3897405 1.500834
0.0366645 0.06131952 0.5514122
-0.5845147 -0.2666728 0.8832484
0.0526431 0.01238038 0.5409159
0.3274535 -0.3116574 1.238475
0.0004254289 0.1173197 0.6170374
0.42254 -0.3154458 1.36956
0.02397779 -0.04368341 0.5647293
-0.402011 0.03382333 0.763615
0.5294623 0.1242454 0.9260709
-0.237504 -0.3699901 1.547743
-0.05055346 -0.436556 1.790165
0.08348288 0.09340882 0.5870535
-0.4835155 0.1001925 1.146198
-0.1916908 -0.4008354 1.630562
-0.364179 0.1745753 0.9782146
-0.3262711 -0.01626661 1.049454
-0.3935371 -0.03569981 1.656461
-0.5156035 -0.2903781 0.9376297
-0.09945799 0.04633943 0.4885101
0.1429438 -0.1696381 1.023563
-0.3774041 -0.06959653 0.5596459
0.4507712 0.1896835 0.7641756
-0.5867234 -0.1191262 0.9599414
-0.3996123 0.02784661 0.6336931
-0.09311112 -0.299483 1.547708
-0.4437071 -0.02572317 0.9662051
0.04215787 -0.04290388 0.5610526
0.06401493 -0.568113 1.824494
-0.425208 -0.02969903 0.6166373
-0.0001721234 0.1491125 0.4284748
-0.3623843 0.1682883 0.9053189
0.07664727 0.08553004 0.5008045
-0.3915317 -0.4419779 1.298544
0.09828006 0.06678612 0.4536469
-0.3669006 0.2033356 0.7813078
-0.4287402 -0.0775441 0.6245022
0.05144658 -0.281542 1.080514
0.5370884 0.02894273 1.278174
-0.4679452 0.1779364 0.8801802
0.2146312 0.1033123 0.9668075
0.04499032 -0.2471195 0.7941339
0.1278106 0.1946998 0.7532371
-0.08013035 0.1978221 0.547969
0.06909373 0.1559842 0.4980982
-0.02116424 0.09251771 0.5714971
0.244236 -0.1253821 0.8935396
-0.10794 0.1723243 0.9262663
-0.3020667 0.1717404 0.9618423
0.3376724 -0.2577116 1.270074
0.2962692 -0.3441285 1.353913
0.1772325 0.06757061 1.219252
-0.5524788 -0.09897675 0.8903926
-0.2435752 0.226309 0.7234636
-0.5004816 -0.2526783 0.8595167
-0.1372568 0.1851887 0.5900308
0.3873798 0.1840412 0.7661298
0.174831 -0.3155302 0.9230255
0.0748331 -0.1052422 0.3365289
0.2361101 0.2195321 0.7129333
-0.2209603 0.2130369 0.811459
-0.07180002 -0.09637339 1.012162
-0.01281367 -0.005580541 0.5694656
0.07906193 0.1214397 0.475417
0.3143151 0.1192349 0.9209835
0.3575958 -0.3769572 1.277955
-0.01129866 0.07613403 0.5664169
-0.3748787 -0.2244022 1.207412
0.4174823 -0.2553665 1.237648
0.02381626 0.1214834 0.5898442
-0.4217833 -0.01003411 0.6186152
-0.06934358 -0.3340558 1.695419
0.2376468 0.2079408 0.7406689
0.02233493 -0.2903162 1.440599
-0.4273934 0.1081387 1.114375
-0.3765512 -0.006472372 0.6364079
0.01263863 0.1526589 0.4286612
0.04172206 -0.3571686 1.13871
0.1053054 0.2331122 0.6630998
-0.2955832 -0.1533044 1.101903
0.1415613 0.2257776 0.692329
-0.4013826 -0.007263571 0.6319389
-0.3769553 0.03050519 0.593197
0.2432043 -0.3471716 1.1489
0.07167601 -0.1827013 0.5960183
-0.4535201 0.1448387 1.005691
-0.5373727 -0.2651717 0.905447
0.2038191 -0.1374242 1.089907
-0.09912924 -0.1613032 1.076338
-0.2694295 0.2312758 0.7060772
-0.4019345 -0.06966884 0.6386216
0.3219904 0.1815003 0.8346091
0.02204319 0.01299546 0.5495102
0.1941808 0.1911904 0.8233591
-0.3548243 0.1986725 0.7989638
-0.01354367 0.1475841 0.4319004
-0.4198496 0.03466789 1.094127
-0.3945704 -0.006705085 0.6262904
0.01674862 -0.04326899 0.555235
-0.1863711 0.2413925 0.6680039
0.3832427 0.1821368 0.7581773
0.3148911 0.1653031 0.8898101
0.04019096 0.1483494 0.4333777
-0.2379078 0.2037316 0.7802782
-0.1663509 0.1699136 0.8890412
-0.3570206 0.1404405 0.6578021
0.08360276 0.04933488 0.5454585
0.07938568 0.126153 0.4876883
0.2735631 0.2150999 0.7216145
-0.3275808 0.2369391 0.6644801
0.01174377 -0.03176422 0.5557279
0.07743067 0.1594553 0.4845241
0.08488037 -0.1957286 0.9929506
-0.09398322 -0.1248187 1.085479
0.2802847 0.2075445 0.7430337
-0.2273218 0.2299253 0.6778854
-0.006600592 -0.4052728 1.609948
-0.02068504 0.06095701 0.5593504
0.2558279 0.203105 0.7589929
0.005575204 0.07682894 0.565269
0.05244628 -0.2511142 1.408032
0.338662 0.1858586 0.8123498
0.08397429 0.05067683 0.5618619
0.09408087 0.07746736 0.4713212
-0.468944 0.06712766 0.948433
-0.3624579 0.2335269 0.671572
-0.02178186 0.09364016 0.570415
-0.004742846 0.1482773 0.4289512
-0.1672551 0.2401682 0.6647917
0.6764824 -0.1726679 1.382038
0.006708523 0.1484242 0.4281055
-0.3448742 0.2281793 0.7181686
0.5759392 -0.01502003 1.401382
-0.3606615 0.2276244 0.7014951
0.3447602 0.1947646 0.7797033
0.2131458 -0.09482653 0.9501561
0.5790818 -0.08792238 1.087031
-0.02122632 0.07734206 0.5705037
-0.0214976 0.009832866 0.5657181
-0.2809369 0.1776053 0.8876374
-0.4352544 0.2049765 0.7024328
0.3773279 0.0482854 1.002241
-0.2259222 0.2254761 0.7026784
0.04956566 -0.2052085 0.7848516
-0.02169936 0.06086335 0.5682994
-0.3660676 0.08623432 0.6666588
-0.02052801 0.01157519 0.5633532
0.2050487 -0.3426681 0.9950466
0.6031003 -0.3397271 1.187352
-0.08896641 -0.1202921 1.035443
0.3479483 0.2090924 0.7115285
-0.2219162 0.2432552 0.6649495
-0.2796694 0.02054915 0.990824
-0.2275005 0.2379056 0.7162365
0.6040428 -0.03954742 1.276979
0.535071 -0.197067 1.080601
-0.4332211 -0.04447769 0.6281929
0.2203889 -0.3442898 1.073955
-0.06568382 -0.3708568 1.654928
0.1929531 0.1800611 0.8585423
-0.1156423 0.04471017 0.4895272
0.02327288 0.06142703 0.5494199
0.367909 0.1664962 0.8766835
0.01242233 -0.3535457 1.674593
-0.02164027 0.09369113 0.5697603
0.0621402 0.09312978 0.5431033
-0.09553375 0.1278199 0.5229557
0.3151901 0.2095323 0.7120965
-0.3627612 0.08700426 0.6461331
-0.2921134 0.0391609 0.9505061
0.4265247 0.08956111 1.157588
0.3649803 0.197943 0.7574452
-0.2051861 -0.3982915 1.632341
0.06048894 0.07252835 0.5300312
0.371163 0.2000968 0.6867658
-0.2936687 0.1731878 0.9197051
0.3617277 -0.3199944 1.288527
0.01830697 0.1494354 0.4287546
0.2315267 -0.3432863 1.122365
0.0270895 -0.09552956 1.012806
0.01622391 -0.04365151 0.5583604
-0.316268 0.2125492 0.7469854
0.2237532 0.1882357 0.8266069
-0.07780396 -0.2865083 1.511672
-0.3742227 -0.0722376 0.5870844
-0.3075738 -0.2479093 1.34381
-0.01185056 -0.005900027 0.5600682
0.7265311 0.077828 1.247275
-0.1097427 0.04263113 0.482662
0.7289973 -0.1756091 1.429938
-0.342887 0.2232511 0.6832596
-0.02140336 0.09333318 0.5695602
-0.01063624 -0.02148986 0.5606706
-0.3473858 0.1826219 0.8496839
0.05901152 0.09255242 0.542529
0.2058464 0.1265138 0.9987108
-0.4001243 0.2225154 0.7095177
0.4946565 0.1268579 0.9753918
0.2802141 -0.3937573 1.257273
0.1618619 0.204993 0.7739047
0.2366365 -0.3148589 1.129168
-0.4420645 -0.02275774 0.8427674
-0.3894733 0.05061036 0.6362919
0.08500751 0.1424266 0.4901548
0.2421732 0.2213872 0.6946301
-0.02125351 0.0616485 0.5737447
-0.08766283 0.1225003 0.504329
-0.2771001 0.1880963 0.8267683
0.3930876 0.1871553 0.7810448
0.04478787 0.1419937 0.4830362
-0.01975059 0.09146427 0.5651116
-0.09043671 0.1276367 0.5375053
0.5923814 -0.05574882 1.166513
-0.2846977 0.2350195 0.705397
0.20682 0.1277822 1.011015
-0.3971424 -0.02183104 1.592114
-0.2270173 0.2364035 0.6461076
0.2970371 0.07015176 1.2767
0.09022346 0.1602176 0.5572451
-0.1330286 -0.1183954 0.9415826
-0.3674983 0.02939642 0.6723182
0.2134721 0.188269 0.8362818
0.1868373 -0.05897896 1.18329
-0.02169282 0.09341761 0.5703014
-0.1726859 0.236732 0.6896296
-0.1969438 -0.197429 1.117013
-0.3621797 0.004324303 0.6538378
-0.4889487 -0.2860001 0.8991405
0.2359203 -0.04782226 0.9306189
-0.3918557 0.08865618 0.6435021
-0.4148965 -0.1237489 1.037997
-0.04078764 0.1501275 0.4388731
0.4923414 0.1257693 0.9084799
0.3669918 0.1671776 0.8744311
0.3488413 0.1739629 0.8754457
-0.3846382 -0.05597632 0.6608533
0.4301496 -0.363923 1.416185
0.3190365 0.2019729 0.692683
-0.276478 0.2044827 0.8127294
0.4002558 0.1758581 0.8438674
0.4394088 0.1622874 0.7949592
0.3923798 0.1872316 0.7785569
0.3460626 0.1977361 0.735454
-0.5991018 -0.1188464 0.9547275
0.1858124 -0.0584204 1.169896
0.2367288 0.2182952 0.7164905
0.4696994 0.1830021 0.8269466
0.3471928 0.2051391 0.685344
-0.3448265 0.1698282 0.9908114
0.5266333 -0.1494442 1.178985
0.6489418 -0.1513522 1.246472
-0.4046303 0.03395343 0.7666757
-0.5429994 -0.2278138 0.7966796
0.4888815 0.1241976 0.870387
-0.5345141 -0.2352842 0.7923777
0.08301767 0.09659511 0.6018509
0.5280802 -0.1517116 1.001441
-0.4160114 -0.04908523 0.7317504
0.1410777 -0.1859554 1.093743
0.3740736 0.1849575 0.8236125
0.2268986 -0.2527083 1.104908
0.13436 -0.137424 1.04789
-0.3643541 -0.004929605 0.6651754
0.4470323 -0.3592871 1.447194
0.3729512 -0.3024952 1.265738
0.302013 0.2060261 0.7194924
-0.223219 0.2230387 0.7581452
0.3252086 0.047147 1.044406
0.2290253 0.2164394 0.7181751
-0.4169614 0.06682613 0.7820346
0.3043014 0.208753 0.6918778
0.4254526 0.1635541 0.8204207
-0.2559957 0.06027813 1.021432
0.2764481 0.2137656 0.7251613
0.1510702 -0.1864337 1.019486
-0.2059263 0.2283109 0.7075807
-0.4862502 -0.286237 0.8881694
0.2220836 0.1904177 0.8098662
0.4443612 0.1559244 0.8125145
0.2134644 0.188096 0.8377514
-0.4244468 -0.1120643 0.9672017
-0.3597793 0.2280712 0.6997539
0.06789915 0.008262955 0.5438879
0.05253435 0.1365635 0.4625188
0.02830258 -0.08708326 0.9863496
0.180964 0.1994171 0.724113
-0.431008 0.09272827 0.6491373
-0.37976 0.2434943 0.6736015
0.3736763 0.1495148 0.9588407
-0.1583005 -0.4558131 1.774754
0.2630346 0.1567696 0.9630737
0.3777239 0.190079 0.7069193
-0.314662 -0.005864708 1.043287
0.2314766 0.1458461 0.9819627
0.6016344 -0.05906622 1.193955
-0.2906139 0.2307697 0.6783123
0.2995497 0.0649654 1.057803
-0.3744708 -0.1230647 0.9118236
0.3725998 0.04451378 0.9942257
-0.061809 0.146608 0.4489363
0.2172032 0.2188914 0.7088149
-0.3255738 0.1854367 0.7056249
-0.3707062 0.1837611 0.858375
0.005660986 0.07646269 0.5649139
-0.3843355 0.171192 0.7994426
0.2940346 0.1834045 0.8455144
0.3032572 -0.2169116 1.244517
0.2144291 -0.04061354 1.012035
-0.4312103 -0.4829294 1.417514
0.3414386 -0.2491784 1.237934
0.06546042 -0.2558046 1.051554
-0.366758 -0.1448418 0.9963446
-0.3623362 0.04463542 0.5651054
-0.2069187 0.218981 0.7507807
0.2455776 0.168487 0.9206077
0.3015367 -0.258979 1.257901
0.1773102 0.1673976 0.8751971
0.0009242118 0.1169376 0.6149886
0.347923 0.1405722 0.9726103
0.050869 -0.22038 1.243941
-0.157482 0.1728691 0.9975984
0.08547483 -0.09857462 1.106438
-0.2460946 0.2359918 0.7370426
-0.4526665 -0.381044 1.344237
-0.06406908 0.1682642 0.4954362
-0.3322494 0.2219739 0.7166609
-0.3637698 -0.005830515 0.6501515
-0.151297 0.1612026 1.031129
0.2321568 -0.0552326 0.9418148
0.2043831 -0.07874149 1.060341
-0.4013436 -0.2391538 0.9138082
0.2483269 0.2058466 0.7578456
0.3081852 -0.1958322 0.9593951
0.01789783 0.03847138 0.537981
0.02653616 0.1180807 0.6051366
0.2224373 0.1076758 1.020759
-0.4130501 0.1078422 0.7870405
0.3367023 0.1940907 0.7555403
0.06216487 0.1583963 0.4718902
0.06951968 0.1539294 0.4924095
-0.38916 0.03785634 0.6279774
-0.377458 0.04809552 0.6191518
0.2200244 0.1071721 1.010248
-0.3658479 0.1772835 0.8594744
-0.4408801 0.1208411 0.8271323
0.04351484 -0.3792985 1.687896
-0.3044802 0.2018372 0.7831605
-0.408283 0.0797616 0.7918229
0.06664827 -0.1751725 1.029279
-0.2981344 0.2265159 0.6989201
0.3291217 -0.1701618 0.8759111
0.3781593 -0.1201876 0.9132686
-0.4745578 0.1884095 0.7559313
0.164787 0.04973667 1.252868
-0.01123431 0.07669416 0.5677075
0.2244258 0.1893749 0.8310105
0.2699415 -0.185188 1.061242
-0.02062579 -0.03875851 0.5669457
-0.3862338 0.171018 0.7991527
-0.3916297 -0.02846217 0.7241478
0.3306822 0.2075877 0.7190318
-0.4742872 0.159586 0.888235
0.2190665 0.1456802 0.9663662
0.2450165 -0.139419 0.8979183
0.3104538 0.2030176 0.7563679
0.4157902 0.1496218 0.9027959
0.4147246 0.1761216 0.7880648
-0.266416 0.1938451 0.85823
0.1350792 -0.1539452 1.043064
-0.3399357 0.004779623 0.9651756
-0.1007354 0.1244575 0.5297031
0.3585865 -0.2680558 1.264954
0.1717452 0.2131744 0.7399264
-0.3863906 0.170669 0.7998812
0.04542127 -0.2437861 0.7905225
-0.05255431 0.1851917 0.9193516
0.03469579 -0.2695148 1.088779
0.2197009 0.1073527 1.008502
-0.2507804 0.2394969 0.6661738
-0.3660286 0.2299602 0.6326557
-0.4798099 0.1506021 0.9321417
-0.3669285 0.08721463 0.6663299
-0.3762321 0.02623418 0.6499332
0.3757284 0.1647731 0.8470317
0.3714602 0.2100573 0.6987306
-0.312 0.1737743 0.8877935
0.2246657 0.1886388 0.8308069
0.06892306 0.155879 0.4984235
0.2271765 0.08074245 1.134572
0.04269982 -0.04126915 0.5422076
-0.4624704 -0.05100145 0.8981298
-0.02106532 0.06078345 0.5651727
0.213509 -0.07182048 1.005971
0.2203187 0.189029 0.8038481
-0.3078693 0.1535361 0.9368732
0.0241669 0.1284286 0.6162761
-0.430793 -0.02367768 0.9347697
0.1529694 0.1966406 0.7950185
-0.09812631 -0.3350887 1.58482
0.09485874 0.07842182 0.4764737
-0.3509066 0.1852166 0.856708
-0.465743 -0.08401582 0.8846712
-0.3533163 -0.2982245 0.9016616
0.198233 -0.2083795 1.056335
0.06768645 0.04456161 0.5413716
0.2326855 0.2014291 0.782261
-0.06758609 0.1445234 0.4511477
0.0348617 0.06172915 0.5529153
0.05835144 0.06883808 0.5242927
0.3435527 0.1427558 0.9819435
0.3123612 0.1478449 0.9242333
-0.5863587 -0.3153894 1.041234
0.2122317 0.2237452 0.7069713
0.3260906 0.2169433 0.6879168
0.2129713 -0.09372135 0.9403792
0.07730748 -0.222983 0.7158546
0.3737328 0.04911256 0.990049
-0.3328007 0.2199099 0.7261198
0.06846734 -0.1744112 1.083739
-0.3952156 -0.007742374 0.6257461
-0.3793546 -0.05196782 0.6680491
0.2189025 0.126937 1.050178
0.3169345 0.1204822 0.9386659
-0.1970105 0.2318209 0.6794136
-0.3632277 0.2336518 0.6745787
-0.376135 -0.1388814 1.036621
-0.0216228 0.009953993 0.5634288
-0.3525842 0.01338104 0.6397549
0.6204438 -0.1634355 1.335188
0.1454162 -0.197763 0.8886135
-0.2631316 0.2185765 0.7111645
-0.2690541 0.1985586 0.7919965
0.6040968 -0.09528924 1.084672
-0.2692174 0.2231497 0.6945655
0.3052074 -0.3916789 1.264627
0.2090501 -0.03990594 0.9640396
-0.3265324 0.04061015 1.042237
0.4057658 0.1066236 1.028421
-0.2325788 0.00919937 1.062209
0.371091 0.1783583 0.8305485
-0.1143517 0.04416331 0.4894828
0.0469845 -0.2382695 0.7656344
-0.1310277 0.1991118 0.6242616
-0.5514873 -0.2263183 0.7933828
0.4568071 0.1222754 1.037792
-0.04047493 0.1497908 0.4379071
0.5205832 0.112514 0.8895898
0.2899044 -0.381981 1.381053
0.3726255 0.001986963 0.9753551
0.4259293 0.1613126 0.8725671
0.2299453 0.2112203 0.7451543
-0.310907 -0.4081897 1.841734
0.5872477 -0.1617098 1.316762
-0.4032555 -0.1053048 0.9728226
0.6208615 -0.02819108 1.234754
-0.3947237 -0.03824711 1.646214
-0.2417359 0.2335971 0.7039829
0.08533145 0.05280763 0.5779178
0.1246193 -0.1719434 1.010907
-0.3099269 0.1873368 0.8383173
0.1644622 0.2202188 0.7197344
0.0152082 0.1445656 0.4299742
0.1913662 0.1939459 0.8107271
-0.4358402 0.2051758 0.7031565
-0.4675865 -0.06918533 0.8899657
-0.02703218 0.1469384 0.4362875
0.2371096 0.1917728 0.8152184
0.3978019 0.1004854 1.048692
0.4260462 0.158681 0.7491176
0.1371759 -0.2273782 0.9718238
0.3471956 -0.2634126 1.237189
0.3854253 0.1448971 0.9435667
0.5362943 -0.08307752 1.201125
0.4646153 0.1301769 0.9918983
0.2214101 0.1639205 0.9022586
0.3216873 0.1821321 0.8339514
0.3500838 -0.265911 1.246078
-0.4805411 -0.271828 0.8849219
-0.2977226 0.2307962 0.6756444
0.6506932 -0.2121492 1.225646
-0.1842969 0.2388606 0.6614367
-0.5369084 -0.2403451 0.8328938
0.1316825 0.2183529 0.7267495
-0.4849988 0.2514174 0.7054319
-0.2985916 0.2359579 0.652819
-0.3139825 0.2184238 0.735974
0.3269345 -0.248979 1.223651
0.1987897 -0.2447138 1.047062
0.3220825 0.1505483 0.9499245
-0.3639034 -0.3061281 0.9237822
-0.4001461 -0.08518995 0.5960585
0.1919931 -0.05960089 1.213913
-0.2938763 0.2278063 0.6785191
-0.1590447 0.16088 1.051642
-0.4114603 -0.02748405 0.596988
-0.4019617 0.03377715 0.7580804
0.2925466 0.1723168 0.8620799
0.6402786 -0.2085607 1.203405
-0.3828669 -0.04980896 1.674961
-0.305237 -0.2690592 1.293728
-0.4807764 0.1467825 1.124364
-0.4013245 -0.05043494 0.7114025
0.3342099 0.1696177 0.8760386
0.2233351 0.1640901 0.907351
-0.4500243 0.1428797 0.9991587
0.3710153 0.1484191 0.9522867
0.5115875 0.07483127 0.9755343
-0.3077793 0.2304363 0.6839138
0.2624307 0.1907936 0.7637236
-0.3740329 0.2079514 0.7592949
0.3427126 0.0212261 0.9756981
-0.02145158 0.07529717 0.5690549
0.3139825 0.08614089 1.071863
0.3668107 -0.26676 1.299859
0.2276193 -0.2538053 1.10993
0.3041506 0.1239407 1.062607
0.1945018 -0.3861019 1.01045
0.1915371 0.1944126 0.8136941
0.07305544 0.1237926 0.4867346
0.2412942 -0.09150745 0.9089065
0.08450919 -0.196368 0.9930719
0.4717769 -0.3414209 1.397446
-0.43036 -0.4969539 1.256948
0.2011842 0.2049097 0.7593324
0.2218875 -0.3843405 1.113166
-0.3526325 -0.004454827 0.6465445
0.2939172 -0.3505739 1.32216
0.1349378 -0.1385081 1.053445
0.5168235 0.07670593 0.983119
0.2927907 0.1823513 0.8409542
0.3290558 -0.346169 1.318799
-0.2740652 0.22726 0.6922039
-0.3917964 -0.05231199 0.6114098
0.2979247 0.03386561 1.027722
-0.4566151 0.2389581 0.684173
0.30768 -0.3022646 1.481927
-0.3449375 0.2240392 0.6696747
0.4210894 0.09761517 1.050869
0.3099523 -0.2241462 1.199627
-0.3477398 -0.1514995 1.085289
0.6303626 -0.1450795 1.201114
-0.3127772 0.0841777 0.9775804
0.1316809 0.2190118 0.7275205
0.3913951 -0.2566995 1.232353
-0.3667281 -0.1456449 0.9927189
0.3189364 -0.2269474 1.143699
0.3958588 0.09951711 1.040922
0.4137393 0.0837279 1.161718
0.5974846 -0.2147386 1.183849
-0.3672292 -0.03962211 0.5397509
-0.4653311 -0.02860536 0.9008522
-0.3258073 0.2160279 0.7515228
0.5611384 0.0449101 1.095166
0.3122394 -0.3526518 1.575886
0.2058397 -0.0936933 0.9257703
0.00544504 0.1211338 0.5958318
-0.3293215 0.04518735 0.9848228
0.06314548 0.04411056 0.5401955
-0.4313083 0.06676121 0.7963191
0.2251867 0.1929094 0.8201779
-0.1895554 0.2446876 0.6783913
0.1853041 0.01299172 1.282737
-0.5737748 -0.1040346 0.9347669
0.347461 0.1795546 0.8133681
0.3086027 0.2123464 0.6972198
0.2371272 -0.1333126 0.8619964
-0.01519955 0.1458672 0.4335591
0.3359958 -0.2450331 1.229372
-0.289216 0.03124778 1.097971
-0.1011103 -0.1593198 1.077595
0.08319683 -0.1314632 1.051436
0.3767335 0.08124574 1.206309
-0.245229 0.2085875 0.7761015
-0.3664068 -0.1264908 0.9988549
0.3075055 0.1849238 0.7946418
0.1790538 0.2021885 0.7836978
-0.3674003 -0.0600687 0.5951974
0.1727064 0.06375066 1.183978
-0.3220947 0.2328922 0.6556967
-0.2274735 0.2199228 0.7221895
0.3566119 -0.3413171 1.317365
-0.3271736 -0.1895352 1.20238
-0.4809567 -0.1429627 0.9716251
0.2432726 0.1336192 1.024701
-0.3628312 0.0003684227 0.6520587
0.4698544 0.1222197 0.8339363
0.009374633 0.118019 0.3328186
0.4481386 -0.3559757 1.392159
0.5658351 0.1023509 1.047994
-0.204913 0.1609036 1.124122
0.3978907 0.1855661 0.7194738
0.2557006 0.2160591 0.7004357
0.08704188 -0.1244366 1.095486
0.005702609 0.07678246 0.5642781
0.4458319 0.120887 0.9290513
0.0839099 -0.1298682 1.04484
-0.4180952 -0.1643896 1.12729
-0.2809997 0.224571 0.6931834
0.2923386 -0.33885 1.334058
0.1912255 -0.05955606 1.199816
0.4535008 0.141836 0.9369373
-0.3753109 -0.01380318 1.387367
-0.4421667 -0.1096789 0.9537985
-0.351571 0.1530254 0.963972
-0.3977526 -0.07940289 0.5764199
0.1420327 0.2253077 0.6907213
0.06790746 -0.1604141 1.018367
0.2055922 0.214255 0.7414061
0.06759735 -0.01864832 0.5433565
0.3109317 0.2024686 0.7585952
0.07796808 0.1266471 0.4693887
0.3800801 0.04708855 1.016716
-0.4230723 0.1704248 0.9498731
-0.3118356 0.2256993 0.7018144
-0.006993344 0.1256799 0.3705384
-0.4424083 -0.1305487 1.01807
-0.5344192 -0.2639657 0.9023979
-0.4114604 -0.01171918 0.6076053
0.3310048 0.1727381 0.8373991
0.2906821 -0.3828568 1.387208
-0.3812744 -0.01329088 0.551067
0.6051397 -0.2452393 1.347619
-0.3579319 -0.2876216 1.330027
0.3741915 -0.3062754 1.285745
0.3076507 -0.3932911 1.300271
0.3292013 0.02839977 0.9499413
-0.1729603 0.135239 1.025899
-0.3524881 0.2234146 0.7094581
-0.4836355 -0.06441864 0.9037894
-0.374725 0.1744944 0.8025134
0.3106059 -0.3653936 1.306118
0.0467656 0.1439181 0.4533372
-0.3141235 -0.1953088 1.218484
0.5720856 -0.03172819 1.187105
0.5868079 -0.3960567 1.155487
-0.4549184 0.158005 0.9518738
0.2127372 0.21077 0.7494775
0.144024 -0.06405649 1.197583
-0.4548064 -0.08560758 0.6440566
0.2809973 -0.2811255 1.36361
-0.4700292 0.187565 0.7478762
0.2581173 0.1885763 0.8331168
0.04260369 0.1441012 0.4418569
-0.4242787 0.2132486 0.7095619
0.2231818 0.1806675 0.8753088
0.382977 0.04995278 1.01752
-0.4070538 -0.04130683 0.5991272
0.1588449 -0.1918104 1.018754
-0.2315172 0.03164076 1.020934
0.1905314 -0.07937028 1.166589
-0.3938741 -0.03573886 0.7817581
0.5600364 0.04570654 1.090059
-0.4720837 0.1398275 1.070208
-0.5863821 -0.2582693 0.8970735
0.2304622 0.21167 0.7459081
-0.3724146 0.1844002 0.8149961
-0.04890415 0.1591343 0.4636808
0.4062484 0.137676 0.9445169
-0.3877204 0.126482 1.121549
-0.05059304 -0.4258318 1.892783
-0.5246695 -0.2851743 0.9027579
0.5726548 -0.1653879 1.09182
0.5717626 0.041852 1.188711
0.06057031 -0.1213385 1.358764
0.4898277 0.09911306 1.098894
-0.01653111 -0.03901671 0.5408471
0.3448531 -0.2606765 1.230699
0.1752206 0.1729604 0.8395506
0.1564021 0.2282596 0.6859207
0.3724158 -0.1399698 0.900799
-0.3796735 -0.2721638 1.255379
-0.3088109 -0.3611343 1.461822
-0.5289491 -0.2355475 0.7896077
-0.3732264 -0.1449183 1.053705
0.3425979 -0.2505394 1.236596
0.3744 -0.1043849 0.9154214
-0.2024861 -0.2004278 1.152005
0.02695836 0.1515481 0.4263875
0.247896 0.1945499 0.7728246
-0.2605448 0.2142252 0.7361267
-0.3529635 -0.04318734 0.5801977
0.1678231 -0.002779625 1.246493
0.3327079 0.1736692 0.8424457
0.1851249 0.2278941 0.6820828
-0.4830202 -0.2924508 1.00896
-0.5501083 -0.1003463 0.8998144
0.05153616 -0.2205699 1.24497
0.3268786 0.1917449 0.6431071
0.1628593 0.1997854 0.7857764
0.05391905 0.04018798 0.5307791
0.3373851 0.1401587 0.962739
0.3794048 0.1800254 0.7467515
-0.44585 -0.07645155 0.6847584
0.1354945 -0.1526866 1.02999
-0.2774816 0.1984607 0.7929639
0.4974334 0.1039516 0.9809837
0.1603841 0.04480577 1.210271
0.5745644 -0.2066004 1.18991
0.06162577 -0.3045743 1.222209
-0.4444736 -0.0644742 1.03551
0.1919076 0.1949141 0.8156012
-0.5851728 -0.1052649 0.9527596
0.3917068 -0.08932935 0.9569904
-0.3733508 -0.1309313 1.016676
-0.3979596 0.1715366 0.9086789
0.06681176 -0.2514949 1.035005
0.3981215 -0.2334518 1.146508
-0.3858666 0.1804002 0.7956018
0.4114119 0.1609168 0.9075052
0.3168 -0.2936496 1.315597
-0.4293673 -0.2253034 0.8517592
0.5499077 0.04410974 1.071092
-0.3991629 -0.4006139 1.183813
0.20478 0.1227523 1.007223
0.1705429 -0.002425082 1.27931
-0.5084493 -0.3155096 0.9605307
0.196518 0.2185812 0.7138749
-0.396676 -0.04098046 0.7168785
0.565639 -0.02215614 1.281899
0.5735865 -0.004747727 1.395597
0.08495777 -0.1972105 1.128546
0.4869201 0.1272447 0.8635727
-0.3290133 0.0692032 1.043758
-0.4326108 -0.02967685 0.6238751
0.1885473 0.06557871 1.217638
-0.102595 -0.1284858 1.100191
0.4296957 -0.06702151 0.8656414
0.06362698 0.0447138 0.5416215
-0.2805105 0.2412018 0.6409258
0.2956996 -0.3864138 1.412422
-0.4260105 0.1350847 1.040383
0.6570113 -0.01037311 1.266159
0.3570185 -0.3144382 1.286603
-0.4457154 0.1524277 0.9597827
0.1618043 0.204915 0.7732137
0.2625662 -0.02011025 0.9381338
-0.402041 0.0571086 0.594
0.6127609 -0.3324865 1.413169
0.1619992 -0.1756718 1.047
-0.215256 0.2267736 0.6853287
-0.3444644 0.0004659606 0.6315638
0.4388539 -0.3479852 1.360957
0.0229671 -0.3837649 1.272953
-0.3004411 0.1883356 0.8330287
0.5892094 -0.161736 1.319251
-0.09713501 0.04560668 0.4814141
0.4508477 0.140318 0.9321205
0.5595049 -0.03231166 1.167527
-0.3666927 0.121098 0.6737247
-0.3787118 0.1241305 1.097206
0.1154118 0.1390764 0.5436797
0.5530818 0.04430943 1.078376
0.5841128 -0.08197669 1.101088
0.5427648 0.05059266 0.9831898
0.3476037 -0.3880492 1.277956
-0.24787 0.2248308 0.6902053
-0.4876622 -0.08302995 0.8140738
0.6298133 -0.2039096 1.187934
-0.4059121 0.1705266 0.9105622
-0.4635654 -0.2342321 0.888554
0.1469426 -0.0848171 1.214427
0.5487913 -0.0573054 1.159222
