# .PCD v.7 - Point Cloud Data file format
VERSION .7
FIELDS x y z
SIZE 4 4 4
TYPE F F F
COUNT 1 1 1
WIDTH 1595
HEIGHT 1
VIEWPOINT 0 0 0 1 0 0 0
POINTS 1595
DATA ascii
-0.1733639 -0.9456606 1.958751
0.6933377 -0.8451554 2.033619
0.1986033 -1.219821 2.561464
-0.1374149 -1.145242 2.390881
0.9372457 -0.7473046 1.953107
0.7581547 -0.7156687 1.791024
-0.1662955 -1.039008 2.3209
-0.07971117 -1.084001 2.268211
0.6511568 -0.5986925 1.666636
0.3019806 -1.063234 2.327402
-0.09843653 -1.119444 2.372057
0.1586213 -1.066073 2.318207
-0.00920335 -1.077193 2.310438
0.3897158 -0.9134421 2.099652
-0.6046584 -0.7129087 1.800271
0.1139115 -0.1290027 0.7604012
0.007957718 -1.038823 2.251498
0.1046591 -1.097882 2.358586
-0.03963039 -1.062942 2.272055
0.2791038 -0.9789948 2.189548
0.9774743 -0.6689156 1.905672
0.2782831 -0.9774377 2.187927
0.4505602 -0.8887331 2.076506
0.3452269 -1.134495 2.425981
-0.08023023 -1.154128 2.432654
0.1574782 -1.07234 2.32066
0.3930071 -1.028958 2.243218
0.00709846 -1.039092 2.250359
0.5428336 -1.038748 2.287436
0.5046467 -1.062174 2.301343
0.6323612 -0.6769176 1.74337
0.02762473 -0.8061747 1.870379
1.27994 -0.4450161 1.64074
0.2530287 -0.9378367 2.115471
-0.008225091 -1.079151 2.31103
0.1048256 -1.062376 2.299521
-0.0437199 -1.050681 2.265419
0.3483084 -1.176348 2.506139
0.2776554 -1.123161 2.407132
-0.07828869 -1.089881 2.323534
-0.1882719 -1.041454 2.190228
0.5148603 -0.9868225 2.201152
-0.1697138 -1.164613 2.413252
2.302191 0.5278905 1.039831
0.1532739 -0.9133015 2.055775
-0.2203451 -1.04679 2.208723
-0.1435481 -1.07994 2.286876
1.397132 -0.3652035 1.61258
0.08831487 -0.9102544 2.04535
-0.6093653 -0.5599326 1.359022
-0.3330133 -0.8795725 1.837477
0.08809782 -1.017434 2.223353
-0.09688458 -0.8955424 1.910017
0.007829942 -1.039269 2.250367
-0.4244345 -1.009534 2.203778
0.02688702 -0.8022042 1.866924
0.5306852 -0.8560555 2.049183
0.4508093 -1.109743 2.392989
0.3479244 -1.127711 2.424209
0.1500137 -1.147193 2.43993
0.6850781 -0.7500249 1.926763
-0.1933691 -1.080697 2.281478
-0.03747462 -1.102676 2.17934
-0.1132638 -1.049168 2.2542
0.5517099 -0.9762262 2.261583
-0.3837839 -0.8849578 1.876429
0.1472879 -1.110897 2.381836
0.2191823 -0.6967271 1.7129
-0.1695252 -1.084868 2.282962
-0.08838442 -1.094087 2.248384
0.1493293 -1.135718 2.434784
0.2120759 -1.123197 2.407374
0.3028997 -1.175583 2.500739
0.5768503 -0.8254089 1.999205
0.2587099 -1.154785 2.478322
0.1439457 -1.043831 2.270842
-0.5800866 -0.7409954 1.824872
-0.3819519 -0.8872831 1.877927
0.3468043 -1.166207 2.471446
0.5130937 -0.9907101 2.204155
0.5142687 -1.069767 2.361429
0.01325659 -1.047687 2.25406
-0.08013757 -1.146078 2.400764
-0.06497644 -1.092393 2.238501
-0.2025499 -1.058177 2.223657
-0.3550734 -1.017041 2.194171
0.9500728 -0.7118876 2.050154
0.5065876 -1.053199 2.291073
0.3416533 -0.9097093 2.089019
-0.3589371 -1.004008 2.186359
-0.339826 -0.9273952 2.027402
-0.2519016 -1.107794 2.295424
0.1962529 -1.014751 2.22714
0.1789857 -0.8379909 1.926756
0.1878933 -1.009418 2.228559
-0.07803125 -0.834727 1.796611
0.3434017 -1.156358 2.460871
0.5079892 -1.070297 2.300547
-0.3289518 -0.8875915 1.9446
0.07329644 -1.110705 2.078625
0.3704656 -1.035807 2.286642
0.03981433 -1.149266 2.436149
-0.03969732 -1.13171 2.401117
-0.2188306 -1.049333 2.210475
0.5990577 -1.046879 2.313088
0.1564872 -1.065789 2.3155
0.5660771 -0.6611252 1.74454
0.2779754 -1.11461 2.405049
0.5364189 -1.128764 2.446549
-0.3299385 -0.903258 1.819148
0.4574668 -1.156 2.467909
0.06081005 -1.007385 2.207129
0.7823371 0.04253244 0.9982036
0.02023389 -1.120509 2.382826
0.2596985 -1.160897 2.462964
0.01309924 -1.141018 2.411194
0.3487078 -1.074051 2.335541
0.09593027 -1.051711 2.276546
0.6842597 -0.2607788 1.279102
0.02807285 -0.8963549 1.940354
0.2241288 -1.130736 2.423232
-0.04155429 -1.05521 2.267578
-0.5243816 -0.7489313 1.696463
0.1535159 -0.7482274 1.809655
0.02615126 -0.8039265 1.868727
-0.148639 -1.04057 1.869913
0.2394562 -1.102843 1.906878
0.4712222 -1.086284 2.351415
-0.1637983 -1.032737 2.218756
0.3454784 -1.168376 2.472286
-0.528189 -0.7522705 1.697407
-0.08525702 -1.112082 2.3626
-0.5693596 -0.8042165 1.79457
0.4093879 -1.048481 2.250973
0.4467648 -1.061009 2.320528
0.1142116 -0.2624958 0.9055406
0.06098469 -0.2751045 0.8366834
-1.250166 0.1178246 0.4849241
0.1439158 -1.119726 2.406431
0.4832348 -0.9723107 2.206957
-0.1646913 -1.031191 2.218549
-0.2267778 -1.139574 2.358438
-0.09148207 -0.9798257 2.074244
-0.09027442 -0.9806417 2.08649
-0.1737739 -1.091815 2.304458
0.03436237 -1.064221 2.285923
1.022493 -0.6312249 1.775038
-0.5590476 -0.790871 1.793239
-1.207199 0.05729323 0.549481
0.7204328 -0.6806103 1.693228
0.07805948 -1.105128 2.359527
-0.4673281 -0.8208845 1.888751
-0.2980018 -0.9065627 2.015236
0.1615248 -1.093401 2.35874
-0.1517363 -1.007279 1.875033
-0.05393235 -1.111412 2.355919
0.4973947 -1.024521 2.233295
0.3092719 -1.121869 2.406924
0.5712579 -1.054298 2.307759
0.2145889 -1.124941 2.406892
-0.1730252 -1.094432 2.304569
0.3101101 -1.173953 2.489694
-0.5043839 -0.7493647 1.716492
0.4877635 -0.7484958 1.699825
0.1030395 -1.110398 2.381401
0.4714393 -0.8644626 1.805116
0.1089778 -0.1205906 0.7450092
0.0008700843 -0.282089 0.865336
-0.2775706 -0.9217067 2.01465
0.1617943 -1.085897 2.357047
0.8178555 -0.8121281 2.045771
0.3646845 -1.109116 2.378164
0.234582 -1.116899 2.403539
0.2079022 -1.118005 2.404439
-0.3295287 -0.9123872 1.808755
-0.08984889 -0.8455757 1.811077
0.04089661 -1.153188 2.436625
0.03443111 -1.063628 2.284552
0.5150273 -0.9863062 2.183583
0.1040831 -1.101355 2.369851
-0.102488 -1.117176 2.344435
-0.1340172 -0.9574915 2.018877
0.5677274 -1.060711 2.310518
-0.4047336 -0.8215179 1.806438
-0.07623494 -0.6053227 1.281486
-0.03119763 -0.8085337 1.545674
-0.06227743 -0.6676351 1.389758
-0.08115423 -1.081695 2.266796
0.3863339 -1.117278 2.389124
0.1066161 -1.122293 2.407764
0.1546989 -1.163515 2.483956
0.02062071 -1.093097 2.333516
0.568655 -1.058759 2.310085
0.2846923 -1.089048 2.362553
0.01622729 -1.147674 2.425447
-0.07090632 -1.094475 2.247967
0.2738739 -1.184125 2.503485
-0.04994574 -1.07715 2.255223
-0.2071217 -1.126148 2.325242
-0.4870483 -0.7851644 1.734497
-0.06226514 -1.144737 2.415803
0.4649259 -1.134356 2.464633
0.2349016 -1.1077 2.400338
1.019695 -0.5093336 1.621556
0.05663843 -1.097779 2.342114
0.6843721 -1.061457 2.374462
0.5303748 -0.8612569 2.052148
-0.2087976 -1.122225 2.321115
-0.1384052 -1.085808 2.28367
-0.3274557 -0.9128907 1.812813
0.05228868 -0.9594859 2.125358
1.022133 -0.5045828 1.618971
-0.3326845 -0.8696925 1.834388
0.356195 -1.102718 2.373158
0.2779357 -1.106732 1.923626
0.5649366 -1.099339 2.429331
0.5172624 -0.9805977 2.198505
0.05503475 -1.099355 2.344476
0.04672972 -0.9117988 2.05157
-0.1431871 -1.166014 1.810213
-0.5592728 -0.795631 1.794466
1.256855 0.04667082 0.6674805
-0.1772369 -1.014765 1.916463
1.544191 -0.1134172 1.040937
0.6690403 -0.7105085 1.731802
-0.1477477 -1.156208 1.796813
0.6844161 -0.6759468 1.675109
0.02909032 -0.8198674 1.832652
1.692069 0.4765442 -0.03478325
0.07764873 -0.7481104 1.670689
0.3212937 -1.168496 1.898063
0.2235765 -0.9713774 2.175872
-0.04268382 -0.9897234 1.791204
1.009307 0.6605824 -0.1521725
1.418699 -0.1735038 0.6474825
0.1284018 -0.9836947 2.187621
0.03199621 -1.061752 2.284254
-0.1847871 -1.048669 2.193618
1.029727 0.6683343 -0.159661
0.6648559 -0.7717482 1.941388
-0.4360068 -0.8223373 1.767032
0.2909508 -1.094669 2.369541
-0.5389622 -0.8106215 1.809297
-0.3338861 -0.8640514 1.835187
0.6863549 -0.788182 1.96028
0.1990433 -1.099504 2.374402
0.33592 -1.025333 2.275232
-0.2309202 -1.069478 2.152255
0.5249518 -1.046484 2.285063
0.1230122 -1.104298 2.370826
0.4456852 -1.063416 2.305884
0.6624438 -0.780061 1.946165
0.2366768 -1.010419 2.238328
0.3072278 -1.058986 2.315798
0.6848752 -0.8569455 2.069596
0.3359476 -1.026611 2.275722
0.01330965 -1.009701 2.209771
0.1003605 -1.08839 2.354961
0.3859545 -1.122374 2.405407
0.05046972 -0.1717527 0.7143631
0.08655648 -1.021333 2.24416
1.029315 -0.5112575 1.634529
-0.1538789 -1.050713 2.229066
0.1468689 -1.060757 2.312874
0.6673444 -0.2892126 1.288218
0.1983763 -0.9397047 2.098566
0.3483694 -1.07729 2.336408
0.06941338 -0.9642454 2.150148
0.5057097 -1.019964 2.219665
0.04538719 -0.9112474 2.051188
-0.2803499 -1.034418 2.035258
0.1267361 -0.9734641 2.181711
-0.3410977 -0.9561232 1.959294
-0.3162997 -0.8863734 1.957906
0.6833144 -0.8520602 2.030199
-0.1876105 -1.044015 2.19095
0.06758007 -1.080635 2.320147
0.0131646 -0.7149851 1.481097
0.3481562 -1.078796 2.336973
0.2888678 -1.06581 2.331625
0.3405077 -0.9121538 2.093221
0.4437984 -1.056998 2.318212
-0.5418617 -0.8081078 1.806769
-0.5123399 -0.8011721 1.865571
0.03322433 -1.063331 2.285496
0.04600852 -0.9096047 2.050395
-0.4076442 -0.8127737 1.796884
0.4698376 -0.7975521 1.624518
0.5797851 -0.7544291 1.8771
0.3908372 -0.8188004 1.950518
0.4844311 -1.090923 2.375619
0.4703169 -0.685471 1.776702
0.08055366 -1.133203 2.417698
0.3423426 -1.05234 2.305644
0.4007177 -1.142844 2.432354
0.994056 -0.5590342 1.668144
0.03637615 -0.9811831 2.160676
0.8023884 -0.7498083 1.896776
-0.1385957 -1.088172 2.28942
0.242895 -1.025825 2.258004
0.4989522 -0.6835836 1.767606
0.08775376 -0.7383006 1.615898
-0.01814576 -0.9165676 2.056987
0.8049566 -0.8311597 2.05325
0.2614709 -1.046742 2.297363
0.6318874 -0.9986807 2.240327
0.198688 -1.10193 2.374983
0.5687226 -0.8465571 2.010911
0.6739503 -0.7574052 1.896131
0.06802696 -1.082028 2.321179
0.4011619 -0.877458 2.05022
0.3676216 -0.9615772 2.175861
0.1956248 -1.003891 2.222544
0.7171805 -0.8921827 2.121859
0.5192525 -0.9724127 2.205015
0.183229 -0.8319647 1.927235
0.8138529 -0.7249663 1.883085
0.02054336 -1.122204 2.383044
0.5430909 -1.038876 2.288713
-0.1402653 -1.086674 2.287667
-0.1483905 -1.031637 2.120187
-0.05128632 -1.033341 2.257879
-0.4780886 -0.8119704 1.860604
0.6428721 -1.064426 2.34918
1.007659 -0.5394736 1.656861
0.3914771 -1.058547 2.308636
-0.1434939 -1.082001 2.28472
0.2795101 -0.9772912 2.188079
0.5735688 -0.6622728 1.750704
0.3263353 -1.01901 2.265264
-0.1093008 1.145425 -1.080046
0.528322 -0.8641347 2.052236
0.4315177 -0.7030573 1.787374
0.5105122 -1.003377 2.21056
0.01310006 -1.131646 2.409824
0.148119 -1.064861 2.315927
0.6375666 -0.6298875 1.693741
0.5667712 -1.062175 2.311006
0.09733365 -1.070122 2.31725
0.6585278 -1.078961 2.361728
0.2620143 -1.030016 2.290394
-0.3507283 -0.8387307 1.812088
-0.4871929 -0.8620999 1.978702
-0.3481271 -0.9318401 1.746997
0.2836789 -1.094375 2.36507
0.3266943 -1.011099 2.262044
0.5142248 -1.001369 2.210701
0.7295595 -0.9677024 2.238639
0.2978724 -1.083616 2.361838
-0.3041115 -0.982435 2.076068
-0.5734724 -0.7380465 1.821179
0.6822107 -0.7215706 1.761671
1.454406 -0.3756582 1.111786
0.39401 -1.037071 2.25247
0.2189731 -1.010148 2.236973
-0.4960319 -0.7877976 1.851307
0.7794954 -0.7571173 1.770936
-0.1772093 -1.017368 1.915262
0.2249636 -0.9448725 1.949756
0.4017692 -0.9901424 1.931272
0.4722602 -0.7600291 1.790775
0.6281919 -0.420846 1.401005
-0.1010572 -0.9579995 2.055819
-0.01778491 -0.7716573 1.584252
0.06606642 -0.4563325 1.075279
0.5563951 -1.110116 2.427803
0.05872313 -0.7447217 1.647399
2.074202 0.375013 0.2923296
-0.1347223 -0.9245561 1.948817
0.09351385 -1.108305 2.377236
0.2590482 -1.018741 2.262701
-0.08074686 -0.8514674 1.796172
0.1778665 -0.8292584 1.921983
0.680917 -0.2451361 1.250442
1.65826 0.1624573 0.2269724
0.02712148 -0.9022442 1.945723
0.2414839 -1.147771 1.888608
-0.165491 -1.030331 2.218296
0.1611459 -1.091169 2.324553
0.05296856 -0.9534929 1.983784
0.1588591 -1.072014 2.320575
-0.03764457 -0.4838876 1.226674
0.400162 -0.8819907 2.052633
0.0678898 -0.3225829 0.8917999
0.4614349 -0.969438 1.936015
0.4982221 -0.7930958 1.94207
-0.0203097 -0.9361466 1.991962
-0.09833939 -0.9619004 2.060355
-0.06059883 -0.9048486 1.8412
-0.0400309 -1.178179 2.27599
0.8967715 -0.6994073 1.755797
-0.1128973 -0.9595478 2.042767
0.3960938 -1.071577 1.883508
-0.2578154 -0.9541911 2.035627
0.2203636 -0.9548768 1.94719
0.4002793 -0.8825145 2.052915
0.08009328 -0.6900817 1.571007
0.504988 -1.075325 2.315821
-0.08193525 -0.9041985 1.786547
1.607175 0.7431801 -0.3823964
0.3575018 -0.9581817 2.168806
0.6777728 -0.2540896 1.259014
0.3913538 -1.059312 2.308961
0.1715606 -1.10623 2.380201
0.39297 -1.032776 2.241257
0.6207116 -0.9499176 2.174006
-0.07829984 -1.071957 2.264474
0.1765195 -0.7328279 1.756246
0.307724 -1.055028 2.314366
0.5625267 -1.067283 2.342952
0.5735969 -1.04658 2.304734
-0.02539292 -0.8600298 1.410128
0.6174624 -0.942356 2.189995
0.2832808 -0.9351266 2.101527
-0.1068079 -0.9597531 1.827638
-0.0861 -0.8967018 1.778944
0.09456622 -1.112787 2.378542
0.1916744 -1.017142 2.263224
0.2382693 -1.015599 2.256467
0.402578 -0.9416652 2.152882
0.1262348 -1.003121 2.229041
-0.1047406 -0.9116405 1.594522
-0.1846623 -0.9362439 1.959505
1.020194 0.6653563 -0.1552369
1.540482 0.6211909 -0.244127
0.7978639 -0.9701588 2.267329
0.7150564 -0.9573098 2.201245
0.1432788 -1.034469 2.266351
0.3420887 -1.040449 2.302812
-0.03382764 -0.7870514 1.598257
-0.3293137 -0.8707305 1.839836
0.01443985 -1.013082 2.211151
0.01647928 -0.9896412 1.584133
-0.02813892 -1.084714 2.314809
-0.08406419 -1.077092 2.264086
0.6343217 -0.6415033 1.701517
0.3261321 -1.024684 2.267566
0.5317627 -0.6641051 1.695939
0.1709315 -0.716688 1.550092
0.8003215 -0.8760307 2.129353
0.1464693 -1.057866 2.31219
0.2913633 -1.101962 2.371887
0.1534663 -0.9140294 2.056278
0.3671065 -0.9242235 2.159892
0.7227826 -0.8799671 2.116194
0.7295679 -0.9663732 2.2353
0.2591239 -1.014349 2.260331
0.4477005 -1.048066 2.317261
1.401992 0.2175502 0.661007
0.4757475 -0.6910817 1.691015
0.4427236 -0.9704886 2.140491
0.2446928 -1.074758 2.341375
0.2825907 -1.098608 2.367062
0.02773054 -1.046934 2.279434
-0.5257292 -0.7571497 1.683789
-0.3323298 -0.869097 1.837426
-0.2051765 -0.9812768 1.747165
1.844477 0.652755 -0.3026344
0.5692753 -0.9071263 2.121863
0.4819812 -0.7333381 1.56338
0.5735468 -0.837561 2.004358
0.6024068 -0.8389477 2.021245
0.06764289 -1.004456 2.235057
0.6458743 -0.9960975 2.234235
0.8075036 -0.8271077 2.052025
0.3102989 -1.003276 2.034111
0.2801747 -0.9821547 2.03684
0.7987723 -0.9355097 2.240603
0.1665661 -0.9342945 2.089127
0.6718172 -0.6078163 1.68803
0.042719 -0.8176786 1.815802
-0.06069605 -0.9899129 1.777806
0.73221 -0.9629853 2.236827
1.824498 0.6428631 -0.1307615
0.7901888 -0.9497135 2.24601
-0.1626929 -0.9929702 1.766288
-0.1628487 -1.006617 2.099699
-0.03345526 -0.7309108 1.542735
0.3421102 -1.0424 2.303414
-0.04000557 -1.100245 2.240374
-0.5088863 -0.7699569 1.759759
0.5953419 -0.7699835 1.934366
-0.1330679 -0.997902 1.868811
-0.4747026 -0.8361191 1.548705
0.1390789 -0.729057 1.707065
0.7371983 -0.9549754 2.229943
0.5262131 -0.872188 2.059291
-0.2747069 -0.9334349 2.022478
0.5796407 -1.023722 2.235291
-0.1401396 -0.9635807 2.075257
0.1315466 -1.103974 2.369416
-0.00278122 -0.8435444 1.663672
0.08870304 -0.912464 2.04605
0.1453827 -1.049966 2.273261
2.258691 0.6272309 -0.4539855
-0.01081189 -1.06167 2.039303
0.3070149 -1.139792 1.842272
-0.05474441 -1.073751 2.228017
0.2953677 -0.9977702 2.027352
0.5058933 -1.072428 2.314934
-0.176053 -0.8934914 2.028441
2.084617 0.440163 -0.2076653
0.319238 -1.166954 1.748967
0.03318283 -0.9036248 1.949205
0.9444691 -0.7187679 1.940962
0.530111 -1.041449 2.270226
0.3153978 -1.075293 1.947848
0.06624519 -0.7569594 1.664425
0.3394276 -0.9261005 2.100041
0.3970951 -1.097139 1.786467
0.3912242 -1.061837 2.309824
0.2964929 -1.062057 2.024912
0.4563391 -0.8435746 1.689416
0.4436961 -0.6625039 1.759334
0.517129 -1.069455 2.292167
0.3887651 -1.047522 1.961274
0.3935012 -1.009035 1.935407
-0.4707537 -0.8071384 1.861935
0.8505681 -0.8627055 2.097341
0.3998579 -0.8820549 2.052682
-0.330577 -0.868329 1.838066
-0.1915357 -0.9695314 2.075929
0.03794033 -0.8149772 1.816118
-0.1937316 -1.034442 2.186111
0.158676 -0.7372982 1.797388
0.7391223 -0.9548556 2.223044
0.02911889 -0.911804 1.951421
0.2945785 -1.093936 2.366063
0.4442957 -0.9031963 1.745816
-0.02696063 -0.7669515 1.577538
0.5738392 -0.6658792 1.753471
0.4063085 -0.959524 1.9042
0.4807053 -0.7561073 1.669375
-0.02585689 -1.086223 2.18882
0.4323412 -0.9250399 1.6801
0.1986934 -1.096401 2.373345
-0.5687114 -0.8278501 1.793037
0.4560264 -0.855014 1.702588
0.5917616 -0.7781912 1.938697
0.6992257 -1.022965 2.249946
0.3423428 -1.039467 2.30258
0.4747955 -0.8038016 1.70666
-0.06208733 -0.9010517 1.813835
-0.0001450517 -0.8658875 1.665834
-0.007149993 -0.7040774 1.525692
-0.3449711 -0.9152833 1.801751
0.4047072 -1.098515 1.864416
0.3820183 -1.176884 2.002989
0.1644811 -0.6609617 1.495633
0.08821311 -0.7817398 1.698598
0.6311376 -0.9723522 2.195981
0.4281324 -0.6793841 1.768896
0.4723683 -0.7982741 1.670545
0.3927361 -0.9385934 2.108888
0.8215075 -0.9035298 2.22553
0.02616679 -0.6721351 1.417139
0.7775578 -0.8815843 2.074752
0.006552589 -0.5824313 1.317864
0.5671691 -0.8032759 1.820248
-0.07090291 -0.8851122 1.769133
0.5132003 -0.9823955 2.182347
0.1724863 -0.8811564 1.601451
2.027702 0.6335514 -0.3439125
0.4553521 -0.9083416 1.900572
0.3916661 -1.057864 2.308584
0.5125307 -1.016027 2.228965
0.4023477 -0.9414237 2.151391
0.03734037 -0.8170657 1.818188
0.1614532 -0.939305 2.106818
0.3419308 -1.010383 2.020476
0.2349389 -0.9120243 2.050888
0.5117042 -1.053453 2.306847
0.2924303 -0.9528026 2.059693
-0.1169876 -0.8455586 1.594018
0.5800963 -0.9544598 2.180767
0.0472702 -0.9113813 2.051272
0.1523799 -0.7459047 1.808601
0.389772 -0.9170287 2.100728
1.859988 0.6804382 -0.3266431
1.441551 -0.2462939 1.503505
0.493322 -0.8430277 2.045775
2.151043 1.110586 -1.00475
0.265307 -0.9834718 2.195908
0.4842295 -0.9982889 2.182449
0.5837874 -1.077861 2.319699
0.2386117 -0.9767679 2.180164
0.2941764 -1.027411 2.003858
0.8270031 -0.7960272 2.032867
0.4122609 -0.9708063 2.203989
0.2640114 -0.9864463 2.198317
1.005577 -0.7759063 2.022034
-0.1681013 -0.9269007 2.054555
0.2339303 -0.9095336 2.04951
-0.0330464 -1.036506 2.077707
0.6945718 -0.8469835 2.059494
0.2341444 -0.9050684 2.046478
0.9490066 0.4768188 0.05705191
0.3913341 -0.8043054 1.941895
0.7561921 -1.01822 2.320883
-0.07096515 -0.9287578 2.12693
0.5637987 -0.920868 2.128077
0.2223141 -0.9648715 2.174195
0.6499177 -0.9886788 2.231685
0.3898398 -0.9110246 2.099784
0.3914334 -0.7987979 1.939141
0.4022561 -0.9421527 2.151539
0.5271636 -0.9704261 2.169241
-0.09352037 -0.8942015 1.762425
-0.05549889 -0.9471266 1.811186
0.2396862 -1.114691 1.855432
0.4935298 -1.00336 2.245191
0.6140587 -0.9409547 2.171227
0.7515978 -0.9162533 2.254656
-0.06470516 -0.8814026 1.831041
0.5252288 -0.9892957 2.176385
1.297517 -0.1995158 1.081919
-0.1584443 -0.7262992 1.513382
0.4129724 -0.9118599 1.788031
0.6979809 -0.7386854 1.738799
-0.08641731 -0.8146855 1.523613
0.4329878 -1.066802 1.928655
-0.1727372 -0.6963133 1.483687
-0.02259599 -1.001398 1.846472
-0.04415626 -0.8976458 1.615544
0.243729 -1.170482 1.854934
0.4637532 -0.9537228 2.132872
0.1623558 -0.9398164 2.107117
0.1797144 -0.9473876 2.097875
-0.09735122 -0.8821716 1.663229
-0.0389593 -0.9779338 1.820268
0.262432 -0.9841076 2.198632
0.5202127 -0.7237374 1.61107
0.3701787 -1.037858 2.287134
-0.01194982 -0.6854483 1.420829
0.3700592 -1.039495 2.288373
0.599158 -0.988676 2.209615
0.1849235 -0.9991953 2.223813
0.417634 -1.133113 1.843982
0.1842317 -0.9607323 2.103131
0.036328 -0.8163117 1.818229
-0.05616642 -0.9975498 1.62983
0.3896696 -0.8178686 1.950191
0.1869716 -0.8242762 1.922483
0.804636 -0.9223143 2.154161
0.7188067 -0.9867793 2.238645
0.4871595 -0.8759853 2.06478
0.6699187 -0.8914877 2.085874
0.04989472 -0.9154155 2.05289
0.4805407 -0.6608564 1.717455
0.1208883 -0.740693 1.809863
0.2602343 -0.9743477 2.195578
-0.03457933 -0.8747163 2.066595
0.6049753 -0.8291372 2.014779
0.3901635 -0.9091835 2.098886
0.7576618 -0.7361798 1.886158
0.01987466 -0.9344012 1.610891
0.6521531 -0.8606564 2.052492
-0.01638404 -0.9419769 2.180044
0.5697135 -0.8412668 2.009202
2.055287 0.4947723 0.1306676
0.2358686 -1.131249 1.840596
0.9737134 -0.6773742 1.918711
0.7689525 1.127094 -0.8827304
0.1774827 -0.941379 2.094774
-0.01694836 -0.9620045 2.009934
0.05255007 -0.9702202 2.223959
0.4830984 -0.7432096 1.805186
0.4732344 -0.7866989 1.702162
0.5274903 -1.072702 2.298211
0.4703294 -0.8007509 1.955302
0.6737798 -0.7561134 1.896076
0.2835111 -0.9344115 2.101464
0.6547567 -0.9794523 2.226913
0.6801164 -0.8688588 2.074606
0.4631559 -0.962212 2.188159
0.08007367 -1.00303 2.25844
0.4294228 -0.6767709 1.766257
-0.1742549 -0.9402318 1.957271
0.05119061 -0.9519553 2.123486
0.683709 -0.9711922 2.155415
0.6711184 -0.7871417 1.952395
-0.0009131263 -0.9489343 1.837692
0.7591144 -0.9213523 2.144214
0.4718545 -0.861863 1.793946
1.008062 -0.9157004 1.770033
0.07057619 -0.8177472 1.896191
0.6241726 -1.01932 2.246944
0.4697888 -0.8017166 1.955318
0.8195697 -0.7180636 1.880367
0.755063 -0.8502815 2.06266
0.06129533 -0.9910025 2.19543
0.3877757 -1.197867 1.844784
0.1598508 -0.757172 1.810648
-0.08978564 -0.8804906 1.742955
0.6096581 -0.8412346 1.855854
0.2937679 -1.170504 1.954644
0.07196309 -0.8192635 1.896449
0.4988339 -1.030411 2.23238
0.6186299 -0.955303 2.175794
-0.04867158 -1.001387 1.785554
0.07841344 -0.9987187 2.257716
0.6232038 -0.7979897 1.823548
0.7034524 -1.015525 2.253266
0.5747793 -0.6516818 1.741284
0.5115678 -1.016605 2.216745
0.3913053 -0.8096971 1.946087
0.7883708 -0.8247533 2.008452
0.8147661 -0.7230029 1.882554
-0.01875151 -0.9579671 2.006613
0.442697 -0.8287755 1.875795
-0.2182799 -0.870208 1.983267
0.5035723 -0.5213245 1.616574
0.777221 -0.8841171 2.080494
0.1491026 -0.9174224 2.049865
0.3149606 -1.266669 1.894921
-0.1535976 -0.9451507 2.064407
0.313464 -1.169749 1.981361
-0.07392282 -0.880133 1.813976
0.5192423 -0.9606824 2.170335
0.0619345 -0.8982112 2.053303
0.1718382 -0.9447974 2.092157
0.6566666 -0.9984898 2.243685
0.5478318 -0.8764782 1.861649
0.7778012 -0.8818027 2.079256
0.3023994 -1.198295 1.911248
0.4317274 -0.6774626 1.76874
0.06457219 -0.7714862 1.661374
0.4396309 -0.6698376 1.763761
0.3703757 -1.037622 2.28782
0.1728804 -0.8432767 1.952398
-0.2232652 -0.3352333 1.004035
0.1200344 -0.9861482 2.22317
0.05784579 -0.9672536 2.127912
0.4344271 -0.6973165 1.7827
0.4026355 -1.170664 1.878872
-0.2561456 -0.160986 0.9672623
0.3238727 -0.9738612 2.044912
0.6903978 -0.2402635 1.263065
-0.1477287 -0.9543403 2.069354
0.06621692 -0.8032221 1.885552
0.389823 -1.201683 1.871288
0.7786909 -0.8409005 2.017479
0.7547655 -0.7440385 1.890248
-0.06896628 -0.9740694 2.18737
2.371561 0.8344312 -0.7519053
0.1896898 -1.199521 1.951803
0.7452241 0.4954634 0.1189109
1.911898 0.3878654 -0.03080954
0.1503531 -0.9206787 2.050519
0.3532384 -0.9883706 2.21033
0.4120674 -1.010854 1.72977
0.1575053 -0.9364786 2.058189
0.04615881 -0.9946289 2.161501
0.5696203 -0.9423552 2.177801
-0.03818584 -1.010572 1.793711
0.3932779 -1.041821 2.25445
0.4432407 -1.075047 2.308781
0.5999042 -0.9767985 2.185905
0.442785 -1.077175 2.309257
0.5943907 -0.8593124 2.026796
-0.1085394 -0.7407207 1.720404
0.4422767 -0.9781675 2.144022
0.9854024 -0.6338073 1.750857
0.367262 -0.9532593 2.172677
-0.0521105 -0.9943009 1.77284
0.1322212 -0.991093 2.188217
0.3142174 -1.001292 2.223069
0.4425842 -0.9658062 2.138872
0.1875419 -0.8230935 1.922028
0.2824521 -1.032307 2.28689
0.06965375 -1.004241 2.19749
0.4823069 -0.9820611 2.207896
0.0345954 -1.065897 1.91491
0.5335713 -0.9458866 2.15771
0.03867933 -0.907514 1.953921
0.6856465 -0.8465009 2.028069
-0.0960543 -1.054243 1.821191
-0.1068041 -0.7985328 1.658342
-0.04014356 -0.7364928 1.470236
0.5626852 -0.6117674 1.702476
-0.08697825 -0.8928238 1.906863
0.2624862 -0.989523 2.200997
0.3531826 -0.9903137 2.210756
-0.134112 -0.7239425 1.720343
0.3127849 -0.9365137 2.113843
0.1974776 -0.9385366 2.098399
0.1714425 -0.9498122 2.113287
0.1540288 -0.9240018 2.056007
0.2333101 -0.9056855 2.047247
0.03756579 -0.7366409 1.785731
0.0009904219 -0.9748619 1.906123
0.5337277 -0.9423275 2.156002
0.3929056 -1.01967 1.728987
0.2782763 -0.976926 2.033112
0.4296618 -0.6692088 1.7616
0.5651473 -0.9203322 2.128078
0.7045528 -0.9282933 2.13482
-0.05749401 -0.7276904 1.601485
-0.02035474 -0.8858182 1.905387
0.3954255 -0.9070782 1.708683
0.5269462 -0.9017594 2.118594
0.5341887 -0.9439355 2.157045
-0.07642063 -1.080982 1.849234
0.4995421 -0.9204219 2.123149
0.6135666 -0.271646 1.279549
0.8150372 -0.7208155 1.879973
0.9345143 0.4429041 0.08728845
0.6162477 -0.2659453 1.277274
0.339318 -1.004392 2.018183
0.1302989 -0.7292697 1.701641
0.5791196 -0.9584453 2.182517
0.1550574 -0.9163435 2.057128
0.59556 -0.7546314 1.924524
0.003486261 -1.06381 1.597551
0.5242116 -1.083553 2.302903
1.108409 -0.7039193 1.913202
0.4527647 -0.9802806 1.714068
1.275368 -0.377874 1.560929
-0.01614948 -0.9653998 2.010671
0.7637247 -0.7292365 1.879255
0.2672336 -0.9340951 2.060157
0.6761107 -0.8796544 2.07797
1.06614 -0.7587802 1.943616
0.7325798 -0.8023431 1.984614
0.07303128 -0.738223 1.660519
0.340924 -0.9240119 2.096973
0.4885193 -0.8769146 2.064703
1.674375 0.4277519 -0.02613257
1.330932 0.345113 0.3899363
0.07616823 -0.7575043 1.677122
1.618131 0.1308206 0.2680435
0.2481713 -1.008869 2.220325
0.4029358 -0.9921218 1.788099
1.591574 0.6459634 -0.3440778
-0.03344136 -0.9703476 2.018661
0.4557637 -0.6189783 1.686086
-0.1594439 -0.7272885 1.726565
0.5047095 -0.6382692 1.738058
0.5634507 -0.6711478 1.750257
0.429036 -0.6363266 1.741287
0.7632446 -0.1456517 0.7098129
0.2017782 -1.02552 2.225872
0.4547972 -0.6298605 1.693544
0.1347704 -0.9966987 2.189686
0.455662 -0.6232139 1.688955
0.4143174 -0.9647558 2.188583
0.5086222 -0.5992821 1.712121
0.427226 -0.8524722 2.028895
-0.130083 -1.074402 1.851487
-0.1776628 -0.6847749 1.603301
0.2477438 -1.005697 2.219605
0.2673407 -0.9338542 2.060597
0.2022732 -1.026711 2.226509
0.5006613 -0.7705626 1.930541
-0.3549722 -0.9057493 1.791298
-0.03876597 -0.9634284 2.015506
1.31627 0.3710935 -0.165924
0.2485404 -1.009647 2.220171
0.2027916 -1.028539 2.226964
-0.0087587 -0.9179183 2.037256
-0.3518886 -0.8649509 1.830594
0.1997643 -1.019574 2.225512
0.1347011 -0.996881 2.189143
-0.5410594 -0.9242593 1.71783
0.04119443 -0.8105987 1.808507
-0.004119569 -0.9233965 2.037588
0.3966628 -0.7191715 1.845946
0.07111263 -0.815798 1.894565
-0.04020371 -0.9602065 2.013684
-0.3083009 -0.8665153 1.909216
0.4662309 -0.6745363 1.76804
0.3096205 -1.092006 1.965338
-0.4169352 -0.8498614 1.847144
-0.1379727 -0.7177969 1.7137
0.2881019 -1.139998 1.922405
0.4685771 -0.6875743 1.778072
0.2340648 -0.9090259 2.04895
0.08154034 -1.026563 2.19989
0.3183633 -1.051762 1.993104
0.379472 -0.8091659 1.911629
0.1461664 -0.9326383 2.101191
-0.1475387 -1.072546 1.846571
0.04186954 -0.9888483 2.160951
1.614867 0.3820707 0.1637846
-0.1359687 -0.7209666 1.713842
0.13748 -0.7371951 1.705247
0.4861662 -0.881039 2.067204
0.330068 -1.194387 1.82901
0.4883952 -0.8665702 2.060734
-0.08606355 -1.045291 1.476674
-0.03092236 -0.9464895 2.000854
-0.03750959 -1.031942 1.809469
0.6016285 -0.7163429 1.775095
0.2257141 -0.9821141 2.181203
0.2574323 -0.9401727 2.109113
0.4618595 -0.6949231 1.778893
0.0704658 -1.01893 2.20931
0.4236315 -0.9124522 1.566599
-0.1295764 -1.003327 1.875761
0.2586838 -0.9406309 2.110074
0.1733734 -0.8170276 1.916476
-0.03410042 -0.8443686 1.488681
0.2269539 -1.10077 1.833524
-0.09259358 -0.8157106 1.762555
0.215077 -0.9757164 2.171573
0.2713205 -1.064738 1.974308
0.07923398 -0.7376441 1.666203
0.02449658 -1.026718 2.212912
-0.0176663 -1.009264 1.502807
0.05663547 -1.07572 2.270721
0.1129036 -0.9329889 1.692768
-0.001535932 -0.9404796 2.064608
0.3149833 -0.9465828 2.118508
-0.02413755 -0.9454553 2.003481
0.3645257 -0.9154727 2.084329
0.2491853 -1.012811 2.22156
0.8728486 -0.189323 0.834466
0.3226619 -0.9659292 2.042172
0.4646429 -0.9618528 2.190752
0.1231781 -0.8750515 1.999184
0.4743399 -0.7177843 1.864904
0.2839802 -0.9426209 2.107195
0.3440401 -0.9394296 2.145337
0.07913828 -0.7372696 1.665696
0.1854279 -0.923467 2.059888
-0.1833973 -0.7053254 1.67752
-0.08593452 -0.9043369 1.922004
-0.1292439 -1.094805 2.284582
0.4567133 -0.6759874 1.776125
-0.4215162 -0.8264807 1.766983
0.1777126 -1.021776 1.860698
-0.01529884 -0.9804785 2.13666
0.4492435 -0.9008894 2.083076
0.224882 -0.9799088 2.180839
-0.1337226 -1.171605 1.815922
0.1845324 -0.9195393 2.058239
0.4351645 -0.7989863 1.841444
0.2790526 -0.9783702 2.03524
-0.1615501 -0.7254304 1.725402
0.5036634 -0.5964448 1.706907
-0.1451333 -1.097056 2.221895
-0.009196804 -1.019555 1.516001
-0.5125874 -0.9484002 1.74326
-0.06830804 -0.9825086 2.10525
-0.3387251 -0.929332 1.906629
0.05368712 -0.9674682 2.130113
0.8160995 0.2790048 0.3138962
-0.2690643 -0.6203951 1.56329
0.05578921 -1.074126 2.270494
-0.06557987 -0.8917453 1.605368
-0.1999458 -0.9254104 1.99269
-0.1815627 -0.9276647 1.995489
0.3763471 -0.7458566 1.877303
0.6911451 2.364208 -1.820391
0.4199212 -0.8204338 1.982497
-0.08516951 -1.010799 1.530324
-0.1617098 -0.7253484 1.72442
-0.1422036 -0.984642 1.378202
0.1233982 -0.8760039 1.999763
-0.5021769 -0.9559802 1.749541
-0.4230782 -0.8259879 1.765843
-0.4672333 -0.9147743 1.844318
0.02754129 -1.03131 2.21303
-0.202083 -1.063621 2.211797
0.235309 -0.9686075 2.16231
-0.2049046 -0.9674131 2.032333
0.660963 -0.7726831 1.774391
-0.7319016 -0.8577352 1.566736
-0.1661328 -1.043417 2.121895
-0.2190448 -0.9521543 2.025127
0.1855247 -0.8258805 1.922783
-0.1284151 -1.095301 2.283198
-0.4168577 -0.832399 1.769671
0.05053565 -0.8922964 1.993484
-0.3430163 -0.8566357 1.831492
-0.0514491 -1.098022 2.262557
-0.1449915 -1.061043 2.127065
-0.04407139 -0.7195019 1.509589
-0.1629082 -0.7252315 1.724027
-0.01283084 -0.9841701 2.137826
0.5941026 -0.73412 1.786176
0.02587523 -0.7888663 1.798849
-0.6422483 -0.9459588 1.954186
-0.3201402 -0.9983011 1.757562
-0.4726714 -0.9756684 1.768681
-0.1471447 -1.073243 1.846963
0.08178917 -0.876443 1.99345
-0.168451 -0.7193974 1.718948
0.4455629 -0.8866377 2.084337
0.1314598 -0.8460401 1.954877
0.05534539 -0.9625843 2.128165
0.3141819 -0.9402639 2.11676
-0.05000716 -0.9989772 1.566697
-0.2688651 -0.9405296 2.027681
0.4987661 -0.7749972 1.930618
-0.1629584 -1.042176 2.11971
0.4549428 -0.8257763 2.008826
-0.06401032 -0.9030057 1.607221
0.3942407 -0.6831198 1.82708
-0.1501732 -0.9733136 1.3631
-0.1769037 -1.082549 2.195331
0.2562431 -0.9397351 2.107768
-0.2702733 -0.5755427 1.519644
0.1665685 -0.8257413 1.921471
0.3185419 -1.158312 1.889961
-0.586474 -0.7337456 1.817928
-0.06361218 -0.9039691 1.609264
0.02364218 -1.025831 2.211572
-0.1412039 -0.908952 1.681359
-0.2153714 -1.095461 2.175956
0.3891037 -0.7505193 1.916768
-0.23744 -0.7204632 1.635102
0.3354978 -1.097706 1.954395
-0.154211 -1.157804 1.799709
-0.2447635 -0.9339905 2.012529
-0.7509708 -0.7402509 1.844148
0.0741044 -1.023095 2.208812
0.4888444 -0.8473445 2.052435
0.04416232 -0.9930897 2.162461
-0.2109382 -1.05893 2.115922
-0.03500849 -1.06179 2.262944
-0.5030134 -0.9537771 1.745793
0.07485282 -0.9731422 2.154169
-0.3365629 -0.9911281 1.748643
-0.07366309 -1.037143 1.724372
0.08257413 -0.8770016 1.993718
0.318104 -1.046034 1.989404
0.07684684 -1.016501 2.197824
-0.2139276 -0.8199284 1.368012
-0.02726929 -0.7215702 1.657209
0.8826736 0.2516666 0.2701072
-0.006903013 -0.8324233 1.838164
-0.1404654 -0.6567004 1.386856
0.307624 -1.12724 1.939622
-0.3205704 -1.003701 1.761867
0.2257548 -0.9798133 2.180518
-0.03580232 -1.069012 2.184245
-0.1215044 -0.8183413 1.528455
-0.1299267 -0.8248632 1.57912
-0.3046262 -0.961292 2.028351
0.01620171 -1.051877 2.25148
-0.1539217 -1.043776 2.119042
0.8374304 0.3460211 0.08939419
-0.1529843 -1.159787 1.800271
0.07650857 -1.008925 2.196887
-0.3727063 -0.4972695 1.254177
-0.06122159 -0.9903649 1.541283
-0.1641648 -1.001972 1.774574
-0.1557216 -0.7438191 1.720588
-0.2626234 -0.9864697 2.086487
-0.09511384 -1.0153 1.688838
-0.07622738 -0.8936881 1.60247
-0.2323945 -1.137192 1.75984
0.2266868 -0.9847821 2.181897
-0.1621973 -0.3839617 1.162645
0.3563464 -0.9615146 2.169756
-0.2435424 -1.003427 2.08875
-0.04713074 -0.8813993 1.884058
-0.1550798 -1.175368 1.843578
-0.0979221 -1.238961 1.874973
-0.6607472 -0.9358859 1.949089
0.0519735 -0.7318498 1.633224
0.07813466 -1.015268 2.197707
-0.1862239 -0.7435504 1.515621
-0.5795467 -0.7559028 1.735384
-0.1384024 -1.053939 2.016204
0.9283025 0.4671816 0.05606424
-0.1525793 -1.056549 2.085581
-0.1527179 -0.9294607 1.61102
0.4235075 -1.198281 1.942254
-0.07582964 -0.9017518 1.932815
-0.03428058 -1.116653 2.073164
-0.1685091 -0.7227579 1.581965
-0.150576 -1.058377 1.83823
-0.1676124 -0.7178771 1.698885
-0.1224202 -0.7830445 1.630014
0.2782681 -1.11004 1.897071
-0.2409416 -0.6224014 1.558259
-0.398876 -0.8331237 1.819475
-0.001511409 -0.940715 2.064626
0.2295458 -0.996457 2.184596
-0.4034471 -0.8274459 1.817046
0.4734873 -0.623448 1.736184
0.387695 -0.784204 1.930794
-0.1723325 -1.07883 2.216389
0.1542168 -0.9314891 2.084243
-0.142235 -1.077917 1.85133
0.1547136 -0.9930001 2.1773
0.2749335 -1.078717 1.983732
-0.00510962 -0.9436618 2.071493
-0.2779675 -0.1119446 0.9586814
0.1557376 -0.9174393 2.057273
0.2382941 -1.116668 1.900517
0.333044 -1.076203 1.939437
-0.02121831 -1.058515 2.260749
-0.7124164 -0.9503139 1.87
0.0755089 -1.007549 2.196803
-0.5580587 -0.8985988 1.989873
0.4912381 -0.580449 1.530933
0.1821462 -0.9654313 2.145681
0.08621746 -1.004778 2.199299
-0.3968043 -0.8351871 1.819857
-0.6525452 -0.894031 1.86833
0.2674126 -1.040125 1.978321
-0.2169267 -1.094443 2.176156
0.1921769 -1.024211 2.230298
-0.003460289 -1.038435 2.231365
-0.06792454 -1.114659 2.246989
0.1533903 -0.7483862 1.809776
0.3827847 -0.8866296 2.009242
0.1055112 -0.7544442 1.818648
-0.2005272 -1.075054 2.178051
-0.627014 -0.9525172 1.937681
-0.271916 -0.8849367 1.94006
-0.12455 -1.099631 2.284174
-0.02145095 -1.058308 2.260926
-0.03008231 -1.10971 2.238781
-0.235608 -1.080621 2.172145
0.1446868 -0.9992477 2.187969
0.3141206 -0.938465 2.115551
0.4084244 -0.7317109 1.388201
0.3113151 -0.9491856 2.139548
-0.6510779 -0.9412974 1.951919
-0.7159169 -0.9482009 1.8776
-0.768377 -0.7291426 1.83901
0.4812212 -0.6699398 1.639681
-0.2447877 -0.983259 2.073378
-0.03459574 -0.9887991 2.131876
-0.01812155 -0.953966 2.006191
0.1052148 -0.8490224 1.953098
0.06949954 -0.934294 2.083683
-0.1035995 -1.075525 2.263303
-0.01893661 -1.060728 2.260855
-0.5152743 -0.8193211 1.774433
-0.1570383 -1.050774 2.123871
-0.1827731 -1.088039 2.179837
0.3852803 -0.7719858 1.929054
-0.4990233 -0.8447355 1.942448
0.5391812 -0.700684 1.87128
-0.2538259 -0.9636608 2.033776
-0.1830199 -0.7064555 1.6819
0.3953862 -0.7466615 1.861088
-0.0615778 -1.145626 2.128362
0.2548368 -0.9475598 2.141913
-0.01077534 -0.9500667 1.996949
0.1245657 -0.9923843 2.17688
0.4548959 -0.6559495 1.710181
-0.6273147 -0.8545655 1.847085
0.0789455 -0.741506 1.668987
-0.2341657 -1.082229 2.172865
-0.1071245 -0.6788424 1.777828
-0.0330102 -0.9573164 2.074141
-0.0287024 -1.07545 1.757711
-0.1910221 -1.073763 2.173871
-0.2483816 -0.915074 1.432114
-0.1283105 -1.117159 2.311688
-0.09398985 -0.9825305 1.848338
-0.5329445 -1.026841 1.648092
-0.2339107 -1.082458 2.173204
-0.6691141 -0.9403084 1.867118
-0.6607679 -0.8519453 1.928642
-0.6053844 -0.8692963 1.856671
0.4822205 -0.7329229 1.639432
-0.4023243 -0.928905 1.981079
0.4539276 -0.6452621 1.701351
-0.2277936 -0.9523367 2.013815
-0.2074389 -0.6694333 1.65625
0.3879111 -0.7739017 1.927892
-0.6592109 -0.9470479 1.872172
-0.09216825 -1.036159 1.653172
-0.06917175 -1.113058 2.24897
-0.379149 -0.9572595 1.993443
-0.03350077 -1.063314 2.263185
0.06531072 -0.7277489 1.750442
-0.1807558 -1.098323 2.283938
-0.2302046 -0.7323849 1.627109
-0.6009074 -0.9703272 1.798109
0.389689 -0.7998395 1.940176
0.2788171 -0.9834853 2.191278
-0.0813154 -1.000461 2.069546
-0.7121592 -0.912059 1.933364
-0.06974007 -0.8987923 1.608567
-0.05574709 -0.7534238 1.578409
0.2516294 -1.184057 1.878426
-0.7677218 -0.7690085 1.851077
-0.2602353 -0.9452994 2.024883
-0.3329076 -0.8708932 1.837569
0.1676178 -0.8242486 1.920287
-0.7001931 -0.9163452 1.934109
-0.1913124 -0.6953053 1.670514
-0.1245397 -0.7383283 1.732647
0.3996939 -0.9162263 2.063949
-0.2073054 -0.6609881 1.110014
0.364748 -1.074156 1.917796
0.172348 -0.8165002 1.915239
-0.6656639 -0.8856116 1.866492
0.258829 -0.9412755 2.10985
-0.7740534 -0.7576926 1.84695
0.1573549 -0.7468028 1.803636
0.07172358 -0.9236084 2.066316
-0.6295651 -0.866024 1.84139
-0.08782674 -0.5813182 1.258492
-0.2296304 -0.9468858 2.013094
-0.458788 -0.9799471 2.10915
-0.3882136 -0.8404951 1.825086
-0.5269393 -0.9181854 2.052375
-0.1602855 -1.085824 2.219319
-0.07778586 -1.002971 2.068449
-0.6146379 -0.8790108 1.842295
-0.07061449 -1.038322 2.055747
-0.3309567 -0.8767351 1.839178
-0.6036658 -0.8839564 1.679193
0.0742835 -0.7383732 1.662598
0.1696887 -0.8277259 1.921808
-0.2294067 -0.9505933 2.015635
-0.6831615 -0.8345837 1.816512
0.02706901 -1.008015 2.183868
-0.739123 -0.9012029 1.73764
0.2357774 -0.9730854 2.163005
-0.3580114 -0.9911032 2.036202
-0.0002795325 -0.830726 1.840767
-0.6196113 -0.7223017 1.72641
-0.5936128 -0.7610061 1.784528
-0.2204471 -1.091527 2.168919
0.2741208 -1.053916 1.989694
-0.7000925 -0.927992 1.86954
-0.6411669 -0.8598993 1.651739
-0.05064741 -1.002029 2.159573
-0.172179 -0.9852057 2.075467
-0.683401 -0.9984033 1.717982
-0.0008991622 -0.9415007 2.065059
-0.7403846 -0.8274088 1.92583
-0.1738175 -0.9834789 2.074983
-0.3464951 -0.8549147 1.829943
0.2877291 -0.9612247 2.112259
-0.2272296 -0.9428444 2.025612
-0.0760268 -1.004913 2.153162
-0.4953528 -0.9404263 2.0603
-0.4510335 -0.9819034 2.101773
-0.4762482 -0.9712698 1.763824
0.1828142 -0.8283753 1.93946
-0.08052079 -1.000769 2.069699
-0.1891141 -1.061667 2.104579
-0.5897611 -0.9824688 1.817658
0.08808103 -1.008341 2.19977
0.2412651 -0.9901417 2.166764
-0.6344684 -0.7691448 1.893629
0.0859914 -0.9432495 2.108318
-0.6618514 -1.008889 1.727211
0.3076365 -1.080001 1.974414
0.188652 -0.8395181 1.947862
-0.6921708 -1.008313 1.877178
-0.6825725 -0.7777529 1.893125
-0.5597831 -0.9060735 1.99625
-0.5720066 -0.7602975 1.855019
0.1845451 -0.9117473 2.052757
0.08234084 -0.8777314 1.9942
-0.7294241 -0.7507047 1.900678
-0.2730764 -0.8830358 1.939214
-0.115093 -0.92388 1.943281
-0.6725541 -0.7472539 1.879
-0.687974 -0.7767482 1.91305
-0.5242359 -0.9207233 2.0534
-0.6507811 -0.8884814 1.958125
-0.717177 -0.783357 1.867508
-0.1999935 -1.074683 2.177603
0.3339867 -1.084403 1.94557
-0.5939682 -0.9149245 1.845894
-0.6149116 -1.001866 1.877462
-2.053145 0.008066107 0.6230176
-0.8303706 -0.9183695 1.662276
-0.6166756 -0.7846796 1.894605
-0.7955109 -0.9638013 1.917749
-0.739768 -0.7977111 1.82254
-0.5909253 -0.8772928 1.979349
0.07136233 -1.040817 2.246758
0.07247378 -0.9779888 2.159204
0.3065893 -1.123149 1.936068
-0.6963391 -0.9328796 1.876088
-0.01328322 -1.00096 2.160118
-0.09728454 -0.980627 2.051686
-0.3104294 -0.9842017 2.095954
0.2055149 -0.8811562 2.0079
-0.7261049 -0.7494282 1.901591
-0.2276161 -1.057959 2.112863
-0.7316698 -0.8366696 1.933467
-0.3191609 -0.9778842 2.09427
-0.7160425 -1.055033 1.785603
-0.1217666 -1.027063 1.800077
0.234846 -0.9118544 2.050467
-0.2108994 -1.109008 1.813434
0.3062357 -1.174667 1.89727
-0.490558 -1.046574 2.105688
-0.7946203 -0.7570539 1.846093
-0.7793064 -0.9707183 1.92232
-0.07563376 -1.004204 2.061708
-0.06269303 -0.9883749 2.155859
-0.8106688 -0.8492432 1.722311
-0.2569956 -1.068863 2.186934
-0.1175412 -0.9786266 1.846799
0.1441175 -0.8148364 1.912304
0.1206232 -1.224976 2.077713
-0.1071327 -0.5550222 1.409608
0.2958472 -1.148275 1.918393
-0.1718953 -1.016399 2.062461
-0.6039639 -0.9677613 1.797276
-0.1846069 -0.7027851 1.683378
0.02597563 -0.9787433 2.132422
-0.3379643 -0.9347703 1.975175
0.4026332 -0.4659506 1.46673
0.3348369 -1.095187 1.953318
0.4425623 -0.7779887 1.621568
-0.4351692 -0.995911 2.122744
0.0699589 -0.9214846 2.066004
0.4833397 -0.5330881 1.38931
0.1359335 -0.9991618 2.189159
-0.2015136 -0.9401392 2.003832
-0.1303395 -1.058109 2.118218
0.0758972 -0.984066 2.160281
-0.3102109 -0.8863313 1.850184
-0.01307197 -1.012185 2.181937
0.4731467 -0.7415454 1.87742
-0.128078 -0.7285472 1.711095
-0.153426 -0.6836966 1.677677
0.3973913 -0.8501036 1.57208
-0.03379867 -1.080831 2.254818
0.1462117 -0.8168384 1.911763
0.5017219 -0.638061 1.735987
-0.1241777 -1.067255 1.83554
0.3102528 -1.097623 1.968586
-0.03716093 -0.9511521 2.070201
-0.5678609 -0.7493966 1.829395
0.1004805 -1.021169 2.215509
0.3137757 -1.068462 1.980049
0.1792438 -0.9600207 2.144563
-0.1676226 -1.042338 2.121921
0.1187992 -1.038731 2.249077
-0.2016393 -1.064066 2.212652
-0.7687653 -0.7278078 1.83797
0.05399226 -0.9673685 2.129408
0.02123183 -0.7281504 1.734806
0.2285183 -0.9917426 2.175248
0.1483921 -0.9993247 2.19964
-0.7181024 -0.7638523 1.856155
0.2347295 -0.9704808 2.163599
0.03850568 -0.9054247 2.021727
0.08982337 -1.02782 2.234166
-0.2080788 -1.100248 2.170955
-0.785958 -0.7614034 1.848269
-0.5226039 -1.093114 2.047862
0.1095278 -1.02134 2.227358
-0.08907226 -1.013726 2.16808
0.1730524 -0.8421286 1.951698
-0.01285464 -0.9225253 2.042474
-0.1413915 -1.082789 2.267842
-0.5530747 -1.078845 2.040512
-0.02572456 -1.070405 2.262764
0.09069116 -0.8647484 1.972845
-0.003694006 -0.9681573 2.116461
-0.1614013 -0.9421508 1.820339
0.203962 -0.8739295 2.005374
-0.3507956 -0.8815151 1.913387
-0.05270376 -1.043498 2.201811
0.09977993 -1.019711 2.215643
0.05433716 -1.029829 2.221087
0.02773731 -1.008884 2.191279
-0.7421944 -0.8138894 1.932336
-0.09875009 -0.9288756 1.970124
-0.7413239 -0.8293601 1.929396
-0.1678923 -0.7327756 1.730854
-0.006378426 -0.9311005 2.048657
0.1579228 -0.8509727 1.954424
-0.1650288 -1.078384 2.246232
0.1838146 -0.9150802 2.056397
-0.7859975 -0.7617011 1.848272
-0.624886 -0.7021192 1.804599
-0.661163 -0.7317126 1.721792
0.0246161 -1.061386 2.250178
-0.7085742 -0.9522376 1.876423
0.1618114 -0.9416474 2.107129
-0.7111086 -0.8584526 1.855617
0.176231 -0.9974726 2.203279
-0.04064302 -1.027842 2.210089
-0.2805217 -0.9786072 2.088118
-0.01317405 -0.7460136 1.557247
-0.7259712 -0.8341067 1.924678
-0.6091409 -0.7932202 1.899597
-0.03597593 -1.105143 2.200285
0.2621336 -0.9602137 2.111375
-0.1323589 -0.9042073 1.931696
-0.2224375 -0.6371802 1.657738
-0.2698312 -0.9840676 2.08712
-0.730527 -0.9114279 1.925043
0.1440625 -0.9706234 2.173043
-0.07348968 -1.112326 2.245926
0.1037971 -0.8454642 1.951332
0.2290384 -0.9932593 2.175454
-0.4879486 -0.8890774 1.645821
-0.3990989 -0.6126924 1.392099
-0.5961524 -0.8725504 1.860455
-0.1136787 -1.003445 1.773549
-0.3189882 -0.9778103 2.093558
-0.3086011 -0.9622357 2.035864
-0.09232775 -0.983973 2.048495
-0.1411329 -1.068584 1.843838
-0.6617604 -1.027424 1.774641
0.1445854 -0.9022489 2.04483
-0.7301924 -0.7715371 1.818655
0.1768002 -0.9595008 2.143888
-1.984303 -0.03665209 0.670083
-0.1204929 -0.9406132 2.087495
-0.254595 -0.962374 2.031981
-0.7288876 -0.945 1.945713
-0.01452239 -0.9446476 1.994712
0.2155582 -0.9368234 2.09725
-0.6095036 -0.9655742 1.791161
0.03032352 -1.080764 2.287966
-0.07712924 -1.003101 2.152471
-0.1156217 -0.9095487 1.960597
0.1639977 -0.8542734 1.962926
0.3211747 -1.178175 1.906481
-0.1967793 -0.2847957 1.12415
0.1051782 -1.203945 2.063948
-0.1522045 -0.9980895 2.098773
-0.03922757 -0.7803106 1.834148
-0.682725 -0.8476441 1.945163
-0.2418459 -1.080311 2.187548
0.03594984 -0.8171954 1.818912
-0.07034545 -1.113067 2.248954
-0.1052928 -1.025426 1.791901
0.03905746 -0.9847609 2.161282
0.1031896 -0.7513701 1.816975
-0.2160213 -0.4297572 0.9323013
0.1239067 -0.8766313 2.000054
0.124334 -0.958012 2.144413
-0.03691416 -0.9953905 2.159287
-0.7591903 -0.8943736 1.729809
-0.6618594 -1.042156 1.788046
0.08097142 -1.042009 2.247541
-0.4898441 -0.01314537 0.5096954
0.2679368 -1.110361 1.93187
-0.6647677 -1.023871 1.769561
-0.3145673 -0.9076564 2.009698
-0.6359186 -1.060048 1.718094
0.005291827 -0.7260013 1.610978
0.04099835 -0.9138176 1.954738
-0.3130936 -0.9832731 2.09481
-0.2683107 -1.06229 2.187958
-0.5347476 -0.8521567 1.987242
-0.4375062 -1.01797 2.175058
-1.049983 -0.7030988 1.381841
-0.6480374 -0.6556039 1.685398
0.2913453 -0.9911733 2.032002
-0.1454959 -1.128473 2.245279
0.1266354 -0.9618937 2.144993
-0.01425418 -0.8318264 1.903417
-0.6467789 -1.068247 1.990085
-0.3445538 -0.4590868 1.432069
-0.7072606 -0.8795167 1.895814
0.1778804 -0.9597567 2.144421
0.02268129 -0.9739426 2.13151
-0.01439918 -0.7115126 1.63586
-0.05524864 -1.096314 2.308075
-0.007960841 -0.8443565 1.907801
-0.5415002 -0.8466372 1.985269
-0.7438639 -0.9140599 1.926617
0.02029122 -1.021685 2.212477
-0.4470926 -1.012428 2.176073
0.2809338 -1.093011 1.965536
-0.07748446 -1.003073 2.072604
-0.08228842 -1.040205 1.700548
0.3088003 -1.032854 2.006557
-0.08629157 -1.016453 2.168828
-0.09882601 -0.7286245 1.770409
-0.009413044 -0.8419086 1.906522
0.09965118 -0.880579 2.005016
-0.2787066 -1.184799 2.252738
-0.7736291 -0.9711055 1.859496
-0.09458586 -0.7381744 1.775861
-0.6608331 -1.099843 2.024553
-0.5164028 -1.034191 2.10431
-0.06230175 -0.7354576 1.583204
-0.2432156 -0.9265246 1.998422
-0.07838511 -1.002158 2.072304
0.05039808 -1.082764 2.279674
-0.8307251 -1.00406 1.726439
-0.6328586 -0.7802135 1.956812
-0.1766106 -0.9978964 2.099879
-0.5448793 -0.835992 1.775351
-0.642944 -1.037791 2.019575
-0.1753621 -0.6561297 1.614733
0.1244273 -0.7520609 1.815665
0.3332671 -1.083817 1.965627
-0.3916959 -0.8792568 1.87533
-0.3217286 -1.089241 2.187661
0.2321547 -0.903192 2.045478
-0.01983918 -1.011612 2.198557
0.1632176 -0.9449155 2.108038
-0.4325627 -0.9981784 2.12333
-0.1489716 -1.044882 2.13323
0.2037109 -1.136927 1.876701
0.1516211 -0.9282273 2.083057
-0.3846674 -0.8846616 1.877304
0.08089622 -1.041452 2.248578
-0.333149 -1.139608 2.156882
-0.1306045 -0.946044 2.050562
-0.2501377 -0.7043099 1.631167
-0.6760557 -1.02597 1.957128
-0.1490502 -1.024655 2.113877
-0.5585946 -0.7299181 1.833456
-0.2866662 -1.062353 2.220486
-0.2191651 -0.3601743 1.11167
-0.1316239 -1.001245 1.874031
-0.7044755 -0.9203896 1.856069
0.05563203 -0.9684533 1.704543
-0.1304121 -1.00183 1.873148
-0.1474692 -1.069514 1.842249
-0.2571554 -1.070338 2.18618
0.1292544 -0.935355 2.098778
-0.02430846 -0.8080623 1.57914
0.3178981 -1.131589 1.937257
0.09409559 -0.7360891 1.789346
0.0777135 -0.7489465 1.669342
0.3003368 -1.206621 1.877445
0.09176542 -1.033775 2.245066
0.2948333 -1.129344 1.941356
-0.4625505 -0.8322771 1.981221
-0.1477975 -1.070039 1.843681
-0.2392096 -0.3215762 1.076639
-0.246537 -1.074141 2.17189
0.1500749 -0.9451101 2.107397
-0.1780406 -0.7067991 1.704915
0.1313706 -0.9903417 2.189601
-0.5827847 -1.098908 2.083078
0.2191947 -0.9644254 2.149237
-0.6979853 -0.770054 1.911442
0.1802238 -0.9523832 2.115642
-1.051049 -0.7016625 1.379342
0.1893532 -0.8720841 1.939462
-0.609996 -1.051203 2.024859
-0.2399894 -1.083897 2.18827
-0.1528582 -1.164129 2.308625
-0.3955792 -0.6297286 1.394471
0.301784 -1.193979 1.891851
-0.52531 -1.095757 2.173323
-0.6045871 -1.006964 2.092301
0.09596535 -0.7499123 1.683238
-0.1500219 -1.0313 2.114277
-0.06983014 -0.8437089 1.861221
-0.4656377 -1.033178 2.187627
-0.1225269 -0.9847054 2.082807
-0.692542 -0.9015246 1.986613
-0.3567232 -1.105505 2.074158
-0.7598257 -0.9056564 1.870883
0.1375302 -0.9526521 2.123079
-0.3921714 -0.8891766 1.965355
0.3235091 -1.11378 1.943959
-0.01888569 -0.9525527 2.005836
-0.1744044 -1.066148 2.14372
0.06591396 -0.821843 1.892527
0.002666889 -0.8424525 1.846234
0.07616506 -0.9840631 2.160085
-0.02547775 -1.087251 2.271051
-0.6930856 -1.072125 2.10424
0.3042656 -1.065513 1.969632
-0.0905473 -0.9377834 1.974856
-0.1663004 -0.9908707 2.077467
-0.04930055 -0.7195273 1.580602
-0.1711558 -0.717838 1.715435
-0.2299691 -1.063553 2.223753
-0.4406705 -0.915858 1.99765
-0.1743675 -1.071262 2.257019
-0.2297511 -1.100691 2.252452
-0.09005025 -1.018022 2.178408
-0.3923323 -0.8888067 1.965927
-0.07168745 -0.7148377 1.745493
-0.5362894 -1.135197 2.222629
0.07482266 -1.024987 2.220682
-0.2481956 -0.6346149 1.57297
0.02500065 -1.027039 2.213143
-0.195907 -1.056561 2.268634
-0.6136114 -1.049037 2.022174
0.06659728 -0.8422077 1.923204
0.3345565 -1.100823 1.956697
-0.1714844 -1.106715 2.285278
-0.4011113 -0.8863664 1.955011
0.07231963 -0.9500878 2.129034
-0.008939398 -0.9294015 2.043922
-0.02780908 -0.8695148 1.899817
-0.1206853 -1.202964 2.379972
-0.5110682 -1.037428 2.104252
0.2152069 -0.9135242 2.05494
0.3271553 -1.151827 1.920064
0.315603 -1.031768 2.001182
-0.02880625 -1.085983 2.255741
