# .PCD v.7 - Point Cloud Data file format
VERSION .7
FIELDS x y z
SIZE 4 4 4
TYPE F F F
COUNT 1 1 1
WIDTH 1535
HEIGHT 1
VIEWPOINT 0 0 0 1 0 0 0
POINTS 1535
DATA ascii
0.1716893 0.04183267 0.8949969
0.3948077 0.1856617 0.7120379
-0.1525093 -0.06299642 0.9099908
-0.4899432 0.1274303 0.6278014
-0.3816907 0.07318056 0.616165
-0.4361584 0.07739417 0.6418254
-0.1789606 0.1582429 0.6239242
-0.1332066 0.02198473 0.7846611
-0.1689282 0.02611419 0.7836211
-0.1418554 -0.003216019 0.8079644
-0.1312625 0.1053944 0.6939261
-0.137226 0.06947643 0.7323436
-0.3157854 0.03242967 0.7052623
-0.302799 -0.003419145 0.7535096
0.03263999 -0.09299247 0.7423809
-0.2243333 -0.003512224 0.8235384
0.09538476 -0.1378583 1.072718
0.2265484 0.1550214 0.8372445
0.2199194 0.2008902 0.7168718
0.3422031 0.160347 0.8247252
0.3419902 0.03001306 1.034994
0.1168256 0.1033599 0.8049295
0.08278958 -0.01256849 0.9392195
-0.02083473 0.1107166 0.7578491
-0.2701527 0.1573417 0.5919302
0.4542792 0.1324792 0.8573006
0.5746704 0.1136417 1.003962
0.5217943 0.1162961 0.9663538
0.3330055 0.1266157 0.9091009
-0.3187459 0.1450297 0.6055554
-0.3153569 0.1580213 0.5811996
-0.3242626 0.1136524 0.5912372
0.1131363 -0.1347959 1.024165
-0.3726566 -0.07624954 0.790543
-0.1101123 -0.07128872 0.7905962
0.4276909 0.1091342 0.9859751
0.2084149 -0.05962789 1.011957
-0.0001316015 0.08706061 0.7536738
0.007217471 0.06893616 0.7750589
0.4881377 -0.04241465 1.216928
0.1788376 -0.108611 1.053419
-0.374597 0.1045863 0.6108282
0.5440909 0.07129849 0.9837355
-0.06714738 0.08408637 0.7470266
0.3216965 0.1014904 0.8881999
-0.207389 -0.02434808 0.8516874
0.3470136 0.07790001 0.9649244
-0.189569 -0.00367531 0.8423593
-0.1755586 -0.03593589 0.8564801
0.1974388 0.05516574 0.9178923
0.18938 0.02246716 0.9279548
0.220965 0.02313071 0.9384153
0.2889395 0.09497534 0.9194412
-0.191135 -0.1293621 0.989639
-0.08217619 -0.04724933 0.986278
-0.2901137 0.1119911 0.6058215
-0.4796339 0.1241167 0.6135774
-0.293091 0.09002638 0.6409351
-0.07927624 0.167185 0.6247441
-0.4427248 0.0786806 0.6516552
-0.241833 0.1319095 0.6220548
-0.1933535 0.1512541 0.6155616
-0.3135636 0.03447438 0.708147
-0.2573221 0.06623058 0.6865628
-0.29538 0.0641511 0.6750941
-0.2192515 0.0900159 0.6780885
0.2888521 -0.06963782 1.082106
0.02201158 -0.1210282 0.7192981
-0.02701759 -0.1088803 0.6855941
0.0343249 -0.09422868 0.7442888
-0.02484958 -0.1592962 0.6410323
0.2659464 0.1777626 0.8128688
0.03896021 0.1352903 0.7485557
0.03979078 0.1805007 0.6476118
0.1842942 0.06165547 0.9043437
0.08376165 0.1143558 0.785872
0.105814 0.08565673 0.8367625
0.5070789 0.1194181 0.8676447
0.4573644 0.04893382 1.102958
0.4949957 0.05964465 1.022979
0.187799 0.1494801 0.7783815
0.3772743 0.09525353 0.8837818
0.3611593 0.1536757 0.8252758
-0.2307593 0.01603138 0.7776874
0.1156453 -0.1368466 1.039757
0.08079957 -0.0134718 0.9280491
-0.01415295 -0.2354542 0.6991694
0.1799595 0.02925961 0.9363866
0.2855637 0.09421221 0.8515764
0.1746208 0.04475282 0.9181385
0.1432248 0.03088599 0.9192213
0.286723 0.09319155 0.9148513
0.3050569 0.06655996 0.9638544
-0.1957165 0.1533153 0.6246465
0.2842042 0.002539542 0.9952525
0.221243 0.02213373 0.9370344
-0.2179722 0.1793116 0.5746372
0.4641742 0.1348396 0.8736277
0.4766615 0.1058074 0.8835579
-0.09360304 -0.1596597 0.7399836
-0.06745762 -0.0389384 0.7710518
-0.380891 0.07264359 0.6145329
-0.3811355 0.003156489 0.7047918
-0.4412085 0.07820325 0.6495433
-0.0961277 0.1669089 0.6306807
-0.1882264 0.1667973 0.6536194
-0.08139261 0.1736263 0.6489049
-0.1334999 0.02148794 0.7826118
-0.1255697 -0.01903552 0.8454303
-0.1306383 0.104227 0.6912864
-0.3123312 0.03383808 0.703692
-0.2566054 0.06654814 0.6857387
-0.218978 0.09031718 0.6784766
-0.02796374 -0.1091994 0.682492
0.03738691 -0.05084671 0.7975483
-0.02468101 -0.1665099 0.67199
0.04023011 0.1801702 0.6625355
0.07288105 0.1847503 0.6471266
0.03682323 0.1311594 0.7263907
0.04007121 0.1849124 0.6651816
0.2495014 0.02254365 0.9456182
0.245241 -0.04066546 1.024997
0.1454274 0.06816871 0.8583337
-0.01700546 -0.03068822 0.7469721
0.04350465 0.02354218 0.8401217
0.1198895 0.1060119 0.8272069
0.06076018 0.07757906 0.8245568
0.497802 0.1462688 0.8024254
0.4942662 0.1158553 0.8461192
0.4143805 0.0003488301 1.10132
-0.05711083 -0.00209109 0.6433282
0.472957 -0.01158767 1.133883
0.1690381 0.04203206 0.8990543
0.1655405 0.02811833 0.9409148
0.121868 -0.03221275 0.9670312
0.4372994 0.001447195 1.159474
-0.06732389 0.08186097 0.7358404
-0.0558764 0.05325952 0.7502066
0.3323012 0.1256089 0.9088472
0.3134777 0.1355893 0.8884785
0.3457101 0.1085669 0.9486942
-0.36209 0.1528021 0.5911134
0.5459099 0.07165117 0.9873552
0.3084107 0.06698146 0.9750543
0.3399511 0.07652871 0.9488887
0.3970299 0.1861964 0.7146672
0.2734745 0.09172665 0.8158959
0.233064 -0.08011059 1.040232
0.1544426 -0.03676824 0.9889713
0.1628537 -0.01426058 0.9775314
0.02103234 -0.23756 0.7040645
0.3689813 0.2198709 0.7889309
-0.1680784 0.02621485 0.7811792
-0.09336109 -0.1583683 0.7335142
-0.07516148 -0.1213883 0.7280715
-0.157267 -0.06227552 0.937419
-0.1077761 -0.06711823 0.7737382
-0.3075335 0.1397286 0.6418656
-0.3063093 0.1470766 0.585187
-0.3874953 0.1394081 0.596622
-0.4303762 0.007343672 0.6970521
-0.2438374 0.1327937 0.6266341
-0.3769554 0.07138048 0.6066864
-0.1768921 -0.0370574 0.851477
-0.1326822 0.1065848 0.7023467
-0.02536244 -0.1601235 0.6438097
0.1876456 0.1478653 0.7780347
0.2423726 0.1113314 0.890953
0.05670824 0.07363711 0.794629
0.504971 0.1186468 0.8654706
0.3792337 0.1520352 0.6862031
0.4800497 0.0358075 1.100768
0.4128775 0.1045422 0.9645953
-0.4386206 0.1119026 0.5586179
0.3969776 0.1541227 0.8497816
0.4929829 0.1462615 0.9036473
0.4710253 0.1351293 0.8867283
0.171001 0.04085539 0.9072142
0.1640503 0.02795499 0.9339476
-0.4677517 0.005564549 0.6306179
0.5395174 0.1227733 0.9720679
-0.3219216 0.01206615 0.6688817
-0.06659994 0.07919187 0.7171683
0.09561844 -0.1597197 1.062236
-0.1569244 -0.06325663 0.9319623
-0.1990818 -0.06126789 0.9632973
-0.3713846 0.1433549 0.5658421
-0.427531 0.05150525 0.6827827
-0.4685261 0.007540633 0.6578494
-0.2923233 0.0623155 0.6639614
-0.4106439 0.07045119 0.6008457
-0.08013177 0.173512 0.6579624
-0.1834171 0.1611813 0.6328896
-0.1657785 0.1546084 0.5698177
-0.2133916 0.1628645 0.5940291
-0.1341327 0.02171282 0.7933874
-0.138759 -0.005764841 0.7834841
-0.1806978 -0.03858762 0.8673269
-0.255567 0.06473533 0.6818361
-0.1802119 0.07777717 0.697927
-0.01489426 -0.1121083 0.6801494
0.03145896 -0.09296478 0.7299105
0.03192739 -0.04726133 0.7609639
0.2598773 0.1722182 0.7944762
0.249557 0.1406575 0.8661498
0.07259775 0.1611035 0.7507278
0.1057348 0.184481 0.661641
0.2437543 0.02108509 0.9290301
0.2803686 0.001509471 0.9836949
0.1826127 0.07546049 0.8230221
0.1163472 0.1021255 0.811361
0.1206583 0.02989653 0.9073042
0.2892197 0.09259392 0.92093
0.03270921 0.1142398 0.7619927
0.05940398 0.07442659 0.8267866
0.4719424 0.1369624 0.7635102
0.3997778 0.1946691 0.8388625
0.3313769 0.1217187 0.8586153
0.04663635 -0.08671967 0.7826518
0.4141025 0.09429155 0.7186805
0.1663431 0.02973673 0.9511892
0.3563761 0.1957072 0.739395
-0.04584068 0.05550183 0.7567511
0.02039238 -0.2364689 0.7018169
0.3436449 0.1064023 0.9442329
0.2918265 0.09324531 0.9275187
0.2239104 0.02933987 0.9561099
-0.05582582 0.09423288 0.766866
0.1804169 0.0206592 0.8822975
-0.1289259 0.02905016 0.8084708
0.06203571 0.1426133 0.6865219
0.06370939 0.1477977 0.6865022
-0.4177973 0.05517845 0.642547
-0.2067244 -0.0281884 0.8427784
-0.2705797 -0.01804765 0.8217642
-0.190876 0.1473604 0.603647
-0.4599557 -0.01027197 0.6503813
-0.05566474 -0.003012166 0.6050404
-0.1294405 -0.02866328 0.896687
0.1920362 0.08038163 0.8606195
0.0141802 -0.2547096 0.710788
0.1510287 0.06610024 0.8813992
0.1885554 0.148362 0.7824188
-0.007282328 -0.03437189 0.7533427
0.3606726 -0.09900665 1.169093
0.255266 0.02182864 0.9663274
0.2897045 0.002130835 1.011598
-0.1074631 -0.06538828 0.76657
0.2977113 0.1350738 0.7225468
-0.04902685 -0.08157707 0.6549767
0.5157437 0.09032212 0.9901106
-0.01971453 0.1580327 0.6822095
0.2081779 -0.098956 1.023841
0.4690603 0.1352441 0.8808113
0.4758558 0.1610254 0.8673638
-0.09444831 -0.1585261 0.7471345
0.03749571 -0.2666969 0.8315215
0.3869677 0.1888922 0.8120223
-0.02570586 -0.1615245 0.6474233
0.3448019 0.07692984 0.9603682
0.162792 -0.01189822 0.9638892
-0.09548888 0.05522866 0.7897843
-0.3031918 -0.002531005 0.7603486
0.0409013 0.1781078 0.6643946
-0.1367984 -0.3291635 0.834586
0.1754237 -0.01172975 1.033513
0.1049054 -0.1169503 1.00769
-0.1778192 0.1566384 0.6117373
-0.2429554 -0.1382134 1.142129
0.1932729 0.1512675 0.805982
0.1963508 -0.08857308 1.023429
0.1749755 -0.06469841 0.9911152
-0.1304212 0.01847724 0.7611791
-0.0863821 0.09488162 0.74539
-0.09708981 -0.1627068 0.7763109
0.212982 0.07841782 0.60559
0.2591778 0.1298608 0.8614525
-0.1882169 -0.04047336 0.8875889
0.2375806 0.1359027 0.838259
0.1657479 0.04006521 0.8919163
0.3359335 0.1039257 0.924885
0.1916648 0.03056495 0.9254344
0.06945276 -0.1291302 1.111776
0.3792793 0.1527659 0.6904234
-0.1694779 -0.1742393 0.9915203
-0.09443909 0.04477664 0.7576482
0.01875046 -0.2376652 0.7083873
0.4389374 0.1489274 0.8051891
0.01044549 -0.2663619 0.8143535
-0.06059768 0.05246646 0.7564032
-0.02308533 0.1095036 0.7637178
-0.04284735 0.09846175 0.7138793
-0.01803041 0.10183 0.8199723
-0.3395976 0.118021 0.5640923
-0.09592892 -0.1060847 0.7567602
0.4173942 0.000903591 1.101788
-0.3080476 -0.09432508 0.8742661
0.09564261 -0.03224055 0.9825298
-0.3676028 0.1410122 0.5899106
-0.2046219 -0.02966669 0.8272084
0.2522055 0.1675636 0.772703
0.04886468 0.1305506 0.734703
0.1869642 0.07750539 0.8487917
0.246776 0.1159323 0.9171247
-0.0306546 0.129376 0.7151764
0.3526087 0.08865861 0.9267805
-0.1553999 -0.06154966 0.9035683
0.1100523 -0.2651845 1.052442
-0.1744506 0.1252535 0.6680996
-0.3048355 -0.003321903 0.7637506
0.3280482 0.1406459 0.9335886
-0.3313216 -0.1486681 0.9337389
0.2522959 0.02096191 0.9580964
0.05344771 0.1315787 0.6336092
-0.3207334 0.03328875 0.6858941
-0.1826697 -0.0529316 0.8986701
-0.158314 -0.05243645 0.7522175
0.02995945 -0.2109269 0.6891211
0.03347103 -0.2193783 0.7228531
0.01822832 -0.2424504 0.7269494
0.0109296 -0.2457002 0.6865129
0.2306799 -0.09219691 1.064087
0.2119422 0.02682236 0.9205073
-0.1072047 -0.06261899 0.7625077
-0.3952172 0.002473558 0.7302019
-0.09705523 -0.1049105 0.7619739
-0.06568884 0.1527368 0.6410179
0.1788927 -0.06693328 1.009783
0.02558356 -0.04194755 0.7642531
-0.0114137 -0.2292619 0.7018813
0.1865816 0.1452195 0.7809103
0.05483156 -0.2021268 0.7697802
-0.02157882 0.1526932 0.6594541
0.02540842 0.1746654 1.04427
0.1684513 0.04048416 0.9079081
0.1690046 -0.01251675 1.00794
0.1868789 0.07794328 0.8486977
0.4728705 0.1353076 0.8925306
0.3002714 0.09343258 0.9512626
0.4063355 0.1011978 0.9506728
-0.3716615 0.1302765 0.619698
-0.310184 0.1447238 0.6136983
0.415258 -0.4410477 1.319775
0.2009904 -0.09107033 1.023021
-0.02212737 -0.0253947 0.7344959
-0.3183617 -0.102105 0.8996592
-0.1499829 0.0008880947 0.8142688
-0.2549425 -0.188997 1.051033
-0.2015651 -0.1332149 0.9500679
-0.08129776 -0.1964811 0.698954
-0.5549685 0.1731982 1.035372
-0.1305347 -0.02391986 0.852886
-0.2611627 0.06837205 0.7243783
-0.2700379 0.06961941 0.7054892
0.01433229 -0.08627823 0.695195
0.09565058 -0.1160666 0.9785948
-0.01528671 -0.2161412 0.6623744
0.01392882 -0.01171894 0.714037
0.4602331 0.1323722 0.8706874
0.1566875 -0.01368477 0.9532635
-0.2070417 -0.03262583 0.8305562
0.2192052 0.1662515 0.905738
-0.3034208 -0.003823078 0.754163
-0.08361093 -0.2673031 0.7068634
-0.09600773 -0.1186541 0.7132025
-0.09088963 -0.04690342 0.6159845
-0.1491875 0.002700043 0.8103275
-0.06012438 -0.002962114 0.6982572
0.02000211 -0.03721136 0.7762657
0.01621099 -0.2395944 0.7189192
0.006769323 -0.251128 0.7096217
0.4735748 0.08581842 0.8717222
0.1455108 0.1255092 0.7422134
0.2248179 0.02881743 0.9485483
0.5358639 0.1347846 1.110013
0.032994 -0.2278315 0.7529162
-0.04679208 -0.2272944 0.7157777
-0.1410085 0.09572142 0.5080105
-0.3225372 0.09761488 0.6013228
-0.0239162 -0.02099215 0.7442351
0.1465898 -0.01437108 0.8886822
0.1437699 -0.01429688 0.8864265
-0.1209496 -0.01725641 0.7564298
-0.09555674 -0.1194926 0.7060183
-0.1491135 -0.05904803 0.8569155
-0.1025503 -0.1638079 0.8370191
-0.1200856 0.006630603 0.6458763
-0.1185346 -0.02207292 0.9145505
0.01817104 -0.1146042 0.6858318
0.03885278 -0.1435869 0.7304059
0.1399298 0.06321796 0.8008847
0.106621 0.102483 0.7769254
0.3976719 0.0970152 0.9436486
0.4665734 -0.4364272 1.353678
0.02436441 -0.2045473 0.671258
0.01855684 -0.03504322 0.7876458
-0.2022389 -0.03837546 0.8449855
-0.2456518 -0.02047669 1.077341
0.2154707 -0.09492733 1.047006
-0.09563901 -0.1571874 0.8138807
-0.2475352 -0.1787203 1.118858
-0.360124 -0.1407081 0.9373275
-0.07255308 -0.1663768 0.6095022
0.02466714 -0.1209961 0.7541336
0.03914608 -0.1184435 0.9045845
0.03505697 -0.1393834 0.688421
-0.1020001 0.04754927 0.750396
-0.002603821 -0.003992685 0.7373297
0.02051428 -0.1952241 0.6361258
-0.3189578 -0.1080658 0.8870147
0.0983599 0.05301655 0.6210313
-0.4224297 -0.0340455 0.7130265
-0.1305546 0.01403928 0.735036
-0.4863411 -0.3604299 1.49191
0.2320258 -0.1506838 1.114358
-0.2353443 -0.03764691 1.024881
-0.08935755 0.1247773 0.7155275
0.02654005 -0.1638802 0.6921388
0.1841341 0.1502546 0.7716829
0.4331752 -0.02923516 1.170946
0.223722 0.02715692 0.8867853
0.1661882 0.01101824 0.9439166
0.2411989 -0.1118966 1.048819
0.1836422 -0.1306481 1.044748
-0.2241548 -0.06833819 0.88013
-0.2962473 -0.1018015 0.9131581
-0.1676403 0.1300006 0.6409392
0.2409778 -0.04911388 1.033749
0.2369159 0.02938744 0.9368324
0.2339036 -0.08314021 1.024145
-0.02462308 -0.1727309 0.7012158
0.2500928 -0.1782077 1.133854
-0.3182853 0.105355 0.6442965
0.13242 -0.01020217 0.936827
0.1778587 -0.1958271 1.116983
0.4914153 -0.003577659 1.130898
0.2779802 0.001776523 0.9773718
-0.2690882 0.1567336 0.5900495
0.1916158 0.02285725 0.9405497
0.1914249 0.006832223 0.9509255
-0.2953471 -0.08064499 0.9004395
0.07022593 -0.00487898 0.9241322
0.3906975 0.04607526 1.005614
0.02029498 0.04035757 0.8034146
-0.2714761 0.1449856 0.6012144
0.3402448 0.1290281 0.9253471
-0.2121513 -0.1218923 0.9620318
0.3484445 0.1632933 0.8385434
-0.1266441 0.1679218 0.6212786
0.4011832 -0.1455591 1.241677
0.3059548 -0.1748958 1.187547
-0.3360947 -0.0593458 0.8348117
0.4417449 0.06212797 1.045704
0.1624736 -0.2665602 1.123613
0.4789802 -0.04114111 1.190676
-0.1752146 0.1695104 0.6094298
-0.04584403 0.1058874 0.7146707
-0.3554474 0.02311574 0.7574002
0.230253 0.1309304 0.8354643
0.09288467 -0.1329664 1.022856
0.2820719 -0.1347545 1.101771
0.3721152 0.09419808 0.9809731
0.01934238 -0.1154281 0.686266
0.04725261 0.01459648 0.8564039
0.04189412 0.060193 0.804644
0.02055224 0.05837888 0.7919274
-0.3499421 -0.02720803 0.778937
-0.1874124 0.08342195 0.7111081
-0.08934484 0.1251164 0.7167111
0.3496583 0.1303897 0.8974541
-0.2826426 -0.2993355 1.187123
-0.2081518 -0.2222933 1.054045
-0.2097822 -0.1557806 1.031973
-0.1045983 0.0261046 0.8003905
0.2076753 -0.09980865 1.017579
-0.1577721 0.005425862 0.8540116
0.1264119 0.03313915 0.8894573
0.1516709 -0.2177522 1.103384
0.03878267 0.134661 0.7430185
0.1700011 -0.01324302 0.971804
-0.1790251 -0.09564474 0.9652194
0.1569026 -0.1874426 1.082157
-0.2610753 0.06652413 0.6906135
0.03767786 0.03104277 0.8234311
-0.06114206 -0.03719047 0.6832561
0.3186925 0.06939702 0.9472985
0.2706166 -0.1729729 1.147094
0.4808517 -0.04237603 1.200673
0.3024618 0.06637812 0.9625425
0.3148997 0.1365997 0.8895261
-0.01255684 -0.2368293 0.7037425
0.1132169 -0.1346948 1.021608
0.2418549 -0.04096995 1.014989
0.2309709 -0.1271801 1.063128
-0.0632383 0.1215585 0.7001625
0.4080438 0.09612563 0.9853123
0.1315043 -0.01006343 0.9341053
0.1785421 0.02845301 0.933197
-0.2273462 -0.1282907 0.9927403
0.1196468 0.1054478 0.8212444
-0.005980056 -0.03471701 0.7879966
-0.05343695 0.04617382 0.7032675
0.2617066 0.1487777 0.8519402
0.3496384 0.0499624 0.9989411
0.2800063 0.002192022 0.9822433
0.1386072 -0.04334116 0.9653547
0.2106449 -0.2201299 1.14751
-0.1526144 -0.06255715 0.9086694
0.1274514 -0.1214225 1.030935
-0.1637887 -0.1765126 1.003819
0.4867554 0.1674819 0.8856879
0.2116744 -0.1007964 1.036235
0.16832 -0.01408445 0.9677828
0.1218818 0.1801925 0.7067444
0.1425114 0.04610876 0.8846747
0.1235127 0.05220276 0.8869045
-0.2103793 -0.1223244 0.9538224
-0.4594619 -0.01781691 0.7823319
-0.4923192 0.04093682 0.6062915
-0.468262 0.04688772 0.6409838
-0.2299474 0.08422764 0.6800237
-0.3876888 -0.07289506 0.8230559
-0.2920685 -0.08016826 0.8873213
0.2267798 0.1548139 0.8376742
0.02072568 0.125851 0.7526079
-0.03443995 -0.01911415 0.745371
0.3480637 0.16259 0.837602
0.4983341 0.007354741 1.150273
0.4780424 0.03568911 1.092494
0.3448684 0.1278151 0.8870507
0.3193705 -0.1236723 1.124118
0.008789318 -0.2628813 0.7945575
0.2159609 -0.1020252 1.053679
0.1603115 -0.01426743 0.9655485
0.2030983 -0.09463935 1.032436
-0.143765 -0.1058837 1.001321
-0.42967 0.1133189 0.6516827
-0.374936 0.145794 0.5726653
-0.384214 0.02197481 0.7306728
-0.3439817 -0.02759655 0.76459
0.258783 0.1368509 0.8738739
0.01286464 0.1667352 0.6804279
0.3656905 -0.09938417 1.183039
0.1640783 0.0773776 0.8578109
0.6648937 0.05608976 1.179869
0.1026439 -0.111 0.9835447
0.4873787 0.006398527 1.13177
0.5406674 0.1237477 0.9736339
-0.005449114 0.05865696 0.7854981
0.20234 -0.005183094 0.9821721
-0.259969 0.1299283 0.5976979
0.4366001 0.1510523 0.7968139
0.4816267 0.1488962 0.8803841
0.2253413 0.2060137 0.7357805
-0.1897791 -0.127415 0.9690831
-0.1663757 0.02992241 0.74306
0.1723583 0.03873018 0.8628284
-0.2959658 -0.1000193 0.9177943
-0.383626 0.09943935 0.5792789
-0.3916073 0.06234789 0.6007282
-0.148392 0.140067 0.6630252
-0.2251025 0.09922846 0.7109222
-0.09674605 0.04031477 0.7625657
-0.3440809 -0.06930062 0.8167008
0.02121475 0.1271287 0.7569482
0.03274249 0.1163429 0.7730989
0.3590923 -0.09791778 1.165531
0.1160992 0.07824421 0.8622667
-0.03443482 -0.0193156 0.7518942
-0.006585929 -0.03282844 0.7339616
0.04532548 -0.02722814 0.8101498
0.04263319 0.04682829 0.8227201
0.3508031 0.1634492 0.8442685
0.4222741 0.1068804 0.973834
-0.1976878 0.05716677 0.7195462
-0.08022535 -0.2765357 0.7414958
-0.397739 0.02894334 0.8571994
0.03215138 -0.2383281 0.744785
0.2145582 0.02695916 0.9211758
0.1801622 -0.02722951 0.9605867
-0.2269761 0.09509329 0.7072838
-0.4694333 0.03079519 0.616264
0.2031783 -0.0951594 1.034446
-0.1135421 0.1444167 0.6266365
-0.1685692 0.1405539 0.6471091
0.1250216 -0.1201971 1.011863
0.1539016 -0.1633231 1.042042
0.3988434 -0.1381521 1.226382
0.05190464 0.135174 0.753289
0.02208731 0.1317527 0.7820037
0.08998371 -0.03132591 0.9409369
0.3179836 0.1360396 0.9014645
-0.441135 0.1119421 0.5615168
0.7632993 -0.155135 1.473421
0.4167893 0.1044249 0.971331
0.1939215 -0.08648175 1.021346
-0.01678544 0.09107289 0.7770658
-0.3722461 0.07447682 0.6140581
0.04196204 0.04779012 0.8267904
-0.2976463 0.1384447 0.5893335
-0.09563568 0.04020759 0.7605792
0.03748974 -0.1248579 0.706
-0.5017024 -0.05023787 0.7625499
0.1419778 0.02847672 0.9100904
-0.4377762 0.1106481 0.5573263
0.01754112 -0.08919214 0.7338918
-0.05687486 0.06704621 0.7741043
-0.398535 -0.156907 0.982582
0.1006225 -0.1170143 0.9982565
-0.3417576 0.02826687 0.7546673
-0.2985332 0.06316348 0.6771995
-0.0212947 0.1585198 0.6830712
0.4238259 0.1067513 0.9894727
-0.4856142 0.01601678 0.6262416
-0.07292998 0.1257856 0.6817794
0.05719469 0.06863584 0.8037515
0.1306543 0.02042811 0.780619
-0.06480958 0.1183103 0.8573213
-0.08935905 -0.1102446 0.6374672
-0.2033598 -0.03074643 0.8233694
-0.2554138 -0.2092245 1.145281
0.02107222 -0.09764284 0.8034293
-0.1446591 -0.002027555 0.8039918
0.03468823 -0.1253339 0.7216815
-0.04860305 0.1321084 0.6896927
0.3931522 0.04103359 1.022274
0.5374709 -0.05759599 1.283246
0.4291796 0.0009617337 1.134228
0.2401507 -0.1048687 1.131197
0.4094839 0.1017919 0.9611331
0.4547102 0.1277357 0.837219
0.1043668 0.1044278 0.7567692
-0.4338305 -0.0349764 0.7398347
-0.1343534 0.01920804 0.7805316
-0.1873719 -0.05394387 0.9256122
-0.1590368 -0.0632297 0.9103006
-0.1900308 -0.03959805 0.8522615
-0.1990562 -0.03406995 0.7957941
-0.09977193 -0.1620932 0.7965568
-0.2998407 -0.09910177 0.8375446
0.03667296 0.04575409 0.8025925
-0.2970587 -0.09844561 0.9070772
-0.02699647 -0.005534092 0.7243222
-0.1732308 0.1178584 0.6307197
0.4276631 -0.07051174 1.114148
-0.4254431 -0.03398257 0.7248917
-0.3262264 -0.1276028 0.833656
-0.3225969 -0.2712348 1.160285
-0.1862467 -0.1772393 1.003553
-0.298526 -0.004692743 0.7393169
-0.1883234 -0.1406492 0.6354082
-0.2119283 -0.04152777 0.8751073
-0.1555699 -0.0572786 0.4201227
-0.1724979 -0.0549912 0.8977792
-0.08863655 -0.0214863 0.7010502
-0.1038062 -0.04794473 0.7977607
0.01617605 -0.0343726 0.7697789
-0.09621551 -0.1632099 0.868404
-0.1951626 -0.1230221 0.9206384
0.05033236 -0.1876216 0.9456214
-0.08048317 -0.1771827 0.687624
-0.4273519 -0.03409807 0.7210386
0.2832781 0.01103209 0.9739359
0.08335285 0.001701536 0.9400949
0.3033288 -0.2331647 1.245703
-0.1371737 0.06975353 0.7334818
0.3133021 0.1782854 0.8237444
-0.4444379 -0.09091115 0.8058907
-0.1648655 -0.1796967 1.02702
0.3471027 -0.2850853 1.356662
-0.3491222 -0.2339907 1.080607
-0.4714489 -0.008289522 0.6698604
-0.1603954 0.1213208 0.6473795
-0.4934999 0.01425895 0.6455915
-0.4999762 -0.02712541 0.6770106
0.03956685 0.1146389 0.7569411
0.1696241 -0.4565485 1.385908
-0.4097812 -0.2196802 0.8096905
0.1637263 -0.494386 1.396269
0.1579012 0.0701462 0.841288
0.4646353 -0.1426123 1.28248
0.2138719 -0.0634782 1.035433
-0.09460042 -0.01941557 0.7244753
-0.2780246 -0.04249819 0.8603897
0.3990305 -0.173755 1.270725
-0.2929654 0.1383106 0.5838762
0.2963351 0.0944947 0.9425821
-0.3939583 -0.2733297 1.145108
-0.0694178 0.08986887 0.752939
-0.1075288 -0.0354141 0.7498885
-0.4145017 -0.3341987 1.199235
0.09262516 -0.08669684 0.9891546
-0.1754563 -0.03547503 0.862785
-0.3756047 -0.06987143 0.794719
-0.2399343 -0.2437615 1.124545
-0.4334084 -0.03628989 0.7438353
0.03100282 -0.09695738 0.740914
-0.1145366 -0.02846941 0.8458202
-0.1642038 0.1585875 0.6356036
-0.06802707 -0.01930942 0.7586425
0.6784483 -0.1127374 1.399268
0.5299076 -0.1934869 1.376101
0.1948199 0.08384614 0.8803701
-0.1372814 0.02304069 0.783816
0.04417842 0.07611746 0.7833661
0.1917856 -0.3889086 1.3009
0.1595455 0.04738669 0.9064375
-0.3582147 -0.1580013 0.9770517
0.2277132 -0.3366187 1.249516
-0.08022689 0.04803408 0.769955
0.0363925 0.04755425 0.7898096
0.3980286 0.06921599 1.030031
-0.02319259 0.1235918 0.7116748
0.1048312 0.1274714 0.7794642
-0.2419155 -0.1753923 1.085364
0.1964957 -0.3933347 1.319885
-0.1721753 -0.1183956 1.068584
-0.0314105 -0.0876912 0.6864728
0.09189519 -0.03083752 0.9571106
-0.3470754 -0.1547514 0.954846
-0.3989121 -0.01901486 0.6777598
-0.3887487 -0.1724092 0.9509369
0.2196865 -0.02981431 1.006455
0.06514844 -0.5591385 1.349945
-0.398931 -0.3047072 1.139195
0.7932774 -0.1265963 1.398602
0.004428301 -0.2251877 0.6972429
0.2049724 -0.2160383 1.125284
-0.4085284 -0.2318866 0.8915815
-0.3939669 -0.1092553 0.8597397
0.5153149 -0.6279076 1.746694
-0.1901715 -0.1295857 1.003269
0.6295429 -0.3120867 1.585363
0.2931283 -0.4352062 1.390467
0.005226747 0.1672384 0.6637459
-0.4555715 -0.04810704 0.7540706
-0.3778002 0.004145058 0.7490203
-0.2131154 -0.3058233 1.115315
0.5558897 -0.3436767 1.613048
0.2821335 -0.3015283 1.303903
-0.2929046 -0.08024868 0.8919638
0.1007408 -0.09100296 1.002992
0.6625746 -0.3276836 1.672937
0.1151769 -0.3597637 1.181084
0.07266269 -0.600495 1.450257
-0.02396015 -0.1681449 0.6849863
-0.3793171 -0.188676 0.8046072
0.7006618 -0.2810424 1.600676
-0.190404 -0.3381365 1.126461
0.02032284 -0.1197251 0.7111515
-0.2314455 -0.001226093 0.8112297
0.1587448 -0.4030852 1.301808
0.1450166 -0.1424502 1.02653
-0.4827119 -0.004397246 0.7115458
0.2735766 -0.1166671 1.091685
0.3479413 0.07802887 0.9625793
-0.3094801 -0.2643236 1.098649
0.2762938 -0.3272827 1.314151
-0.3331338 -0.2649327 1.149508
0.1257625 -0.1202458 1.023756
-0.2456474 -0.1796965 1.05239
0.4448433 -0.3335636 1.516542
0.3885051 0.0675559 1.008446
0.742578 -0.4487332 1.847292
-0.3585607 -0.1465316 0.9876646
0.686916 -0.2687797 1.558357
0.1589846 -0.3137514 1.119781
-0.3254945 -0.2830815 1.132609
-0.2982943 -0.003239259 0.7444448
0.0319637 0.00213556 0.8197699
-0.428452 -0.08115678 0.7811003
0.1676784 -0.3270139 1.194827
-0.200598 0.1059812 0.6759798
-0.09763557 -0.4046647 1.161824
0.7118789 -0.1528745 1.452423
-0.09524045 0.1466842 0.6677558
-0.1887127 -0.05608348 0.9114944
-0.2971082 0.06519374 0.6706865
0.1279928 -0.2208109 1.087653
-0.2572707 0.06573233 0.6858159
0.1394862 -0.4054784 1.269473
-0.4026731 0.0536562 0.617531
-0.4854499 -0.02622734 0.716361
-0.3601265 0.15172 0.5882416
-0.4344083 -0.03537332 0.7463082
0.3668309 -0.1720973 1.23742
0.7784474 -0.1803111 1.500017
0.8487465 -0.4583768 1.863098
0.2797532 -0.3293902 1.328857
-0.2611492 0.1306769 0.601564
0.40843 -0.1395344 1.252048
-0.2749597 -0.125021 0.9449098
-0.3239612 -0.2133846 0.6966924
0.3205873 0.1013721 0.8856749
-0.4733268 -0.07123431 0.7939656
-0.3595259 -0.1714428 0.7983526
0.3059598 -0.4152385 1.373314
-0.172501 0.1136413 0.6529236
0.1165523 -0.165849 1.039357
0.6524943 -0.2098247 1.466766
-0.3943265 -0.1557599 0.9553252
0.2928997 0.1368245 0.8905152
-0.3088165 0.1008917 0.6219237
0.6793732 -0.2637821 1.540742
-0.1141823 0.1588896 0.6375427
0.02020797 -0.1177315 0.7008336
-0.4810577 -0.017569 0.730406
0.3290441 0.1243085 0.8951334
-0.2911649 -0.3341075 1.170842
0.7677622 -0.286146 1.596222
0.3409329 -0.282089 1.336737
0.3283555 -0.07015714 1.083025
0.4024652 -0.2464024 1.375465
-0.2924207 -0.1525998 0.9406431
0.05572399 0.1462661 0.7238473
-0.2378118 -0.1725649 1.06635
0.1764951 0.05314924 0.9130283
0.6815571 -0.2739008 1.557824
0.3984605 -0.1705309 1.267709
0.2631255 -0.2285737 1.193324
-0.09157123 0.05389865 0.7672947
-0.1791054 -0.2655987 1.089451
-0.4077007 -0.2291986 0.8359697
0.2821429 0.09303649 0.8998463
-0.2805837 0.1275875 0.5539588
-0.1902428 0.1473271 0.6295796
-0.2259682 0.116066 0.6392273
-0.217152 -0.2885027 1.117283
0.1434102 -0.003736426 0.9398802
0.1960143 -0.08529179 1.043162
0.6357622 -0.3152669 1.598537
-0.02725608 0.1054178 0.7437262
0.5601415 -0.04433589 1.237834
0.3504885 -0.1868407 1.233057
0.2543505 -0.01686626 0.9956151
0.06692998 -0.5782027 1.396288
-0.1374167 0.06958747 0.7324873
0.00279962 -0.6030597 1.369053
-0.1266094 0.1503619 0.6422791
0.3493507 -0.1586735 1.203803
0.01306525 -0.6276829 1.431119
0.3291144 -0.1258956 1.156614
-0.1423156 0.139525 0.6423695
0.1820775 -0.2399806 1.130565
-0.3546118 0.1486837 0.579013
-0.3153019 -0.1432696 0.830009
0.155765 0.1259379 0.7609609
0.2875703 -0.06900495 1.078631
-0.02015218 -0.02647387 0.8005949
-0.04998108 0.008322329 0.2944303
-0.232301 0.0850075 0.6868768
-0.4483637 -0.02828822 0.7212769
0.2683172 0.106326 0.9010405
-0.21692 0.1691062 0.5949265
0.6100581 -0.3043514 1.533434
-0.1860908 -0.05401488 0.8986166
-0.2069657 -0.1725302 1.028089
-0.1698435 -0.1816996 1.038935
-0.310246 -0.2733404 1.109824
-0.2956156 -0.1012037 0.9158121
0.3654746 -0.1713703 1.231976
0.1423679 0.04999704 0.8948142
0.1786494 -0.409441 1.352001
0.2939114 -0.4354816 1.39165
0.3748139 0.0350612 1.085124
-0.3912809 -0.09226492 0.8374069
0.1083554 0.02742078 0.9051492
-0.2951682 -0.08055177 0.8994787
-0.2194781 -0.2917523 1.132795
-0.3094533 0.03642257 0.7030743
0.5297285 -0.2778909 1.47873
-0.2793467 -0.2031907 1.060394
-0.1938637 -0.2301516 1.06828
-0.1306804 0.1390503 0.6445645
-0.1137103 0.1644554 0.6567828
0.1898388 -0.2982752 1.203597
-0.01473837 0.09773103 0.7621337
-0.1739528 -0.2572708 1.057069
0.116552 0.07868999 0.8663592
-0.3395389 -0.05978194 0.8440815
0.1133903 0.1408628 0.7294601
0.01885794 0.0400844 0.7926805
0.131661 -0.1515646 1.053997
0.2014659 -0.2567722 1.152937
-0.2766172 -0.2915759 1.157628
-0.2217773 -0.2310547 1.086072
0.1646585 0.0264828 0.9308039
-0.4300283 -0.0817311 0.7859194
0.3505269 0.1112927 0.9613348
0.1732165 -0.1467339 1.062821
-0.2918948 0.08966252 0.6379938
0.4763247 -0.8991349 2.133848
-0.1947164 0.1538819 0.6309114
-0.03618656 -0.16256 0.6423476
-0.0650996 0.08355658 0.739187
0.6524664 -0.2091077 1.466238
-0.3608329 -0.1582108 0.9787692
0.6515834 -0.01190183 1.198182
0.03856428 -0.1391018 0.7151743
-0.3882242 -0.1125442 0.8670362
-0.2739629 -0.2837441 1.175804
0.6654542 -0.1634515 1.459116
-0.2138488 -0.1294177 0.9988775
-0.05248539 0.113942 0.7275098
0.0671721 -0.05214826 0.9586313
0.835106 -0.3003176 1.708445
-0.3829473 -0.1685686 0.960703
0.370315 0.1263028 0.922465
-0.2251044 -0.5330101 1.346613
-0.3830511 -0.1685526 0.9553078
0.657907 -0.01223166 1.207845
-0.04614135 0.06416025 0.7632654
0.4496964 -0.2333973 1.38936
-0.08683245 0.1172488 0.6793173
-0.09300023 -0.01937192 0.7012607
0.02024625 -0.1174991 0.6179003
0.2188004 0.02206178 0.9293314
-0.3879031 0.003887122 0.7182111
0.9142799 -0.4869314 1.909506
0.4065377 0.1329128 0.9648696
-0.05987887 0.1531762 0.6628665
0.1598977 -0.3146046 1.121013
0.2758805 -0.01559116 1.001084
-0.2704576 -0.1968035 1.158286
-0.1737984 -0.6651624 1.394734
0.1592159 0.09111196 0.8254366
0.2723255 0.1817681 0.8204256
-0.2639467 -0.01712315 0.8013185
-0.02256142 0.0006158068 0.7512372
-0.3291184 -0.2540382 0.9370863
-0.1037199 -0.5352865 1.273489
0.2676597 0.02294405 0.9550245
-0.3930879 -0.2422767 0.8504099
0.2815194 0.01060742 0.9695771
-0.3699003 0.02080725 0.7021326
0.3386551 -0.2798153 1.32689
-0.2252904 -0.06866556 0.8846651
-0.02137089 0.04884114 0.7055531
-0.4295017 -0.01682473 0.7588764
-0.2544502 -0.1441013 0.9745303
0.5358803 -0.1959948 1.3899
0.4542204 -0.3405252 1.542122
-0.242807 0.1669471 0.587285
-0.1624006 0.1580688 0.6302367
0.4523147 0.1556253 0.816995
-0.3044805 0.1434255 0.6045795
-0.3920808 -0.04801576 0.8051703
-0.3032695 0.1454912 0.6076857
-0.3909766 -0.2932464 0.8232196
0.04382655 0.1732237 0.6690286
0.162579 0.07648899 0.8506067
-0.1737195 -0.3204965 1.108835
-0.1965805 -0.1332315 0.9983152
0.2393772 -0.2342926 1.173671
-0.2479357 -0.1963638 1.072308
-0.06646496 0.08397691 0.7434901
0.297121 -0.4396412 1.40358
-0.3771018 -0.1824714 0.836207
0.2447049 -0.183917 1.146147
-0.006309759 -0.03222645 0.7322607
0.1845293 -0.3805352 1.266495
-0.2481138 -0.1813821 1.062499
0.6472665 -0.7755496 2.160975
-0.4912736 0.01698125 0.6347042
0.10419 0.06803025 0.8511226
-0.1021222 -0.5147753 1.228788
-0.3012128 8.7059e-05 0.762733
0.05396168 0.1383178 0.7624587
0.2594579 0.1358611 0.8747929
0.2412143 0.109203 0.8869978
-0.5124773 0.01304563 0.6885449
0.249003 0.01975717 0.8992558
-0.04836848 -0.1851556 0.6569
0.2279097 -0.3368132 1.252045
0.1375531 -0.4021367 1.26439
-0.135622 0.1433723 0.6677396
0.6113297 -0.6650168 1.979403
0.1572389 -0.2626341 1.10334
-0.09349667 0.1576868 0.6237291
-0.1455164 0.1373278 0.648798
0.2921281 -0.432698 1.381625
0.5630109 -0.2733279 1.504242
-0.3963326 -0.1565329 0.957473
-0.1036809 -0.5285004 1.259202
0.1577074 0.1292422 0.8156292
-0.2094793 -0.1166685 0.9651868
-0.3824954 0.1070925 0.6245997
0.7782423 -0.1801394 1.499853
0.7652025 -0.1239159 1.361171
-0.1785081 0.1590645 0.6292713
0.4831499 -0.04254517 1.207348
-0.4590264 -0.04808287 0.7598978
-0.4106394 -0.04553309 0.7978694
0.3787912 0.07837369 0.9973073
0.2190614 -0.02949374 1.004011
-0.02005544 -0.00233358 0.758888
0.820128 -0.940165 2.476093
-0.2113068 -0.5019096 1.273402
0.5171175 -0.2750017 1.45179
-0.1310775 0.1034568 0.6898323
-0.4271258 -0.1041836 0.8032895
-0.1801351 -0.2686753 1.101215
-0.3097613 0.1288012 0.6099139
-0.09471636 0.09904387 0.6509258
0.2636396 0.132179 0.9242125
0.5651667 -0.6874316 1.91222
0.6875151 -0.3914309 1.724535
0.1965309 -0.3964449 1.325999
0.3069211 0.106735 0.9380742
-0.1743242 -0.2078047 1.073388
-0.4740469 -0.006460705 0.6767977
0.1506662 -0.09523386 1.02381
-0.2539235 0.1496205 0.6242449
-0.006115535 -0.2265161 0.6823695
-0.3720912 -0.07375005 0.8363076
0.1511454 -0.1482379 1.073594
-0.165802 -0.1801976 1.030032
0.1506198 0.07051237 0.8829798
-0.1724875 0.1143187 0.654397
0.1311002 -0.1230182 1.049248
-0.2411813 0.1045828 0.6438026
-0.361845 -0.07237657 0.8180115
0.02485904 -0.1533857 0.6748903
-0.1801779 0.1746104 0.6266954
0.5740984 -0.1632132 1.379453
0.1803521 -0.2393709 1.129781
0.5946455 -0.1686905 1.42948
0.121722 0.03190761 0.9112088
0.0839719 -0.1294953 1.056815
-0.2635691 -0.2032607 1.082687
0.03954254 0.142159 0.7481354
0.540952 -0.3371635 1.573275
0.1875046 0.0523852 0.8794397
0.1154893 0.07638822 0.8618422
-0.01471876 0.06776824 0.7666435
-0.3582857 -0.2351502 0.7764349
-0.4723147 0.02943456 0.632836
0.05956814 0.07735153 0.8116407
0.430088 0.07477232 1.000917
0.1922267 0.08105405 0.8623391
-0.4073231 -0.1741628 0.9086428
0.2306721 0.0002400978 0.8846951
0.0280816 -0.08150622 0.7183201
-0.2898693 -0.09864227 0.8971148
-0.3187312 -0.2538292 1.094374
-0.3131731 -0.09350141 0.8938514
-0.2605705 -0.3643913 1.198856
-0.09019221 0.07613204 0.7287095
-0.063026 -0.5750124 1.33751
-0.3380181 0.1187165 0.6171925
-0.4614539 -0.009772065 0.6872207
0.1206142 0.106598 0.8248968
0.2931043 0.06173181 0.9338616
-0.320232 -0.2556291 1.103242
-0.07317516 -0.1493649 0.7192578
0.01522035 0.174236 0.7072804
0.1645945 -0.2170738 1.102308
-0.1752359 -0.1065331 0.7799434
-0.004056708 -0.08374284 0.707486
0.4481351 -0.3408968 1.526769
-0.288679 -0.3032424 1.209316
-0.1703684 -0.6491416 1.362845
0.6546767 -0.1606892 1.430873
0.1584674 0.1263809 0.769309
0.8027675 -0.2091619 1.467289
-0.05359447 0.1122327 0.7204719
0.2840028 0.08292346 0.9338342
0.5174179 -0.05474978 1.23688
0.241634 -0.08366382 1.049821
0.4352509 0.04422109 1.051666
-0.157818 0.07994943 0.7089754
0.04348099 0.1229767 0.7594679
-0.05947395 0.04714377 0.7348742
0.199633 0.04375796 0.8998173
0.1638822 -0.3843366 1.262452
-0.4350977 -0.02890774 0.6954712
0.02950159 -0.2046452 0.6865767
0.2594259 0.1353047 0.8717594
-0.01145836 0.05648836 0.780071
0.7778832 -0.1248123 1.386668
0.2798675 0.002398869 0.9856097
-0.4272501 -0.08190619 0.7823263
0.3501472 0.1115959 0.9380949
0.1177684 0.02924762 0.8969488
-0.3937584 -0.1627223 0.9129905
-0.006429757 -0.233923 0.7076773
-0.1031813 0.08274467 1.103258
-0.2965601 -0.1678943 1.045266
-0.2625297 -0.1560213 0.9666851
0.184027 -0.06712916 1.027753
0.572167 -0.2180618 1.41882
0.2174722 0.1495584 0.8095984
-0.07623637 -0.00908799 0.8622025
-0.0293448 0.09561487 0.7592036
-0.2398682 -0.2407673 1.052261
0.6703668 -0.1635654 1.467114
-0.0205649 0.1096626 0.7542666
-0.4969949 0.04105192 0.610979
-0.02357188 0.154526 0.6720347
0.5575665 -0.3407298 1.607022
-0.06950905 -0.1769664 0.7067836
-0.4572793 -0.005859532 0.6708345
-0.005848326 -0.001961283 0.7650399
-0.1785377 0.1390695 0.6362066
-0.2861388 -0.1513243 0.9342358
0.6854656 -0.661957 2.079438
0.4249214 0.1083779 0.9770908
0.05883444 0.1351908 0.7665592
0.4530126 0.04683614 1.090156
-0.3851374 -0.1516189 0.9544698
0.1968366 -0.4029804 1.335742
-0.2355523 -0.2419979 1.111969
0.2640578 0.131775 0.9264206
-0.3756625 -0.2485831 0.8152279
-0.2218575 0.1710057 0.6109465
-0.3140137 0.1427821 0.5970767
0.6601418 -0.2623169 1.525887
-0.1678025 0.1256288 0.6656608
-0.3829594 -0.1637474 0.8532398
-0.03111062 -0.4707514 1.202052
0.1046202 -0.5062169 1.348224
-0.1381918 0.06879939 0.7366508
0.2068043 -0.3111576 1.205444
-0.09082703 0.1157317 0.7951191
-0.08073445 -0.2724149 0.7293925
-0.07135577 -0.04010632 0.7121397
-0.4240786 -0.1990136 0.94871
-0.1359112 0.02017505 0.7920017
-0.264079 -0.1945248 1.081662
-0.4060472 -0.18491 0.7730412
0.06035321 0.09590376 0.8057744
0.3656984 0.1419764 1.019845
-0.4968371 -0.1714727 0.9105326
-0.3345981 -0.149863 0.9342194
-0.03741348 0.06909807 0.7645644
-0.3158921 -0.254634 1.091592
0.7637767 -0.4615474 1.900251
0.4062754 -0.6483814 1.834105
-0.4897914 0.03220968 0.6431164
0.3247874 0.1088493 0.9605349
0.1830242 0.1340941 0.7810625
-0.1406024 -0.004462574 0.7992227
-0.114141 0.1557798 0.6583065
-0.0998325 0.05126873 0.6534112
-0.3927788 -0.2183295 0.8803834
0.2273838 0.1132196 0.8669183
-0.03842053 0.05618358 0.7684779
-0.1140463 0.1551542 0.6562259
0.3755978 0.06696544 1.003842
-0.231658 -0.2374549 1.084123
-0.03799579 0.05718445 0.7805105
0.619056 -0.1522031 1.358648
0.8169996 -0.3055559 1.694357
0.281268 -0.3312344 1.327208
-0.2729599 -0.01768607 0.8296563
-0.1678284 0.1280844 0.6763359
0.3109105 -0.4211394 1.389931
-0.05329079 0.1485565 0.6766027
0.07701609 0.1172234 0.7745881
0.1845428 -0.3903787 1.284746
-0.316923 0.1585981 0.5844437
-0.1609608 0.08243551 0.7267805
0.5518481 -0.2303066 1.415663
-0.09630221 0.03816597 0.7609699
0.6488231 -0.5734224 1.95379
0.7525846 -0.3022206 1.750207
-0.09761824 0.1154331 0.7011928
-0.1797435 0.1589256 0.6257701
0.222981 -0.02882466 1.018416
-0.1627576 -0.08777267 0.3328495
0.3115589 0.1340046 0.8893049
-0.4038432 -0.2162286 0.7949317
0.1556496 -0.1864909 1.075611
-0.4322818 -0.08294912 0.7929448
-0.4186508 -0.1783955 0.934669
-0.3000887 -0.2418466 1.027142
-0.1592243 0.153146 0.6143087
-0.1430884 0.04974408 0.7488037
-0.5055341 0.04333894 0.5923208
-0.2635675 -0.01692991 0.7994527
-0.4508952 -0.2504838 1.007625
-0.04752297 0.1471124 0.6800359
-0.36007 -0.2061349 0.7454104
0.2254787 0.1113714 0.8597516
0.02475776 -0.1615741 0.6839504
-0.1369242 -0.1137514 0.8129259
-0.02393579 0.0007090711 0.6918904
0.5011442 -0.2160978 1.300975
-0.3050467 0.1258076 0.6008804
0.3229019 0.07016599 0.9617425
-0.1911064 0.1025503 0.6578096
-0.09397361 0.07182284 0.6766706
0.1181433 0.1045019 0.8091271
-0.3845574 -0.1700284 0.9179371
0.01044373 -0.08611061 0.6851371
-0.4899668 0.03294152 0.6417247
0.5918149 -0.08871221 1.340121
-0.1587354 -0.06226774 0.9129871
-0.2921279 -0.098529 0.8945273
0.09150745 -0.1320912 1.022842
-0.4655495 -0.005266568 0.6814198
0.3664364 0.1167126 0.935433
0.8555846 -0.5133722 1.98323
-0.3813254 -0.1839583 0.8460683
-0.2375295 0.1385982 0.6601311
0.2824202 -0.3298782 1.324284
-0.4888328 -0.03772102 0.7005392
-0.2814735 -0.2087987 1.052797
-0.05077107 -0.2000909 0.7017583
-0.0923581 0.1441368 0.6583881
0.2916438 0.08809467 0.9549048
0.5723767 -0.2532509 1.503041
0.6041734 -0.3562031 1.690082
-0.1636016 -0.1766866 1.007788
0.1721302 -0.2219681 1.135801
0.5457929 -0.3221794 1.517194
-0.2913213 -0.2198198 1.083763
0.7560332 -0.3014351 1.76913
-0.2645601 0.1329361 0.6104793
-0.4352505 -0.1994067 0.9746635
-0.3053354 0.06421837 0.6885754
-0.3162456 -0.09615433 0.9049961
-0.4372656 -0.2459596 0.9036507
-0.2079819 0.1619036 0.6257837
0.05144363 -0.1948904 0.7474629
0.07766354 0.1286627 0.7719142
-0.3899733 -0.2730933 0.8789194
0.2037862 0.04388719 0.9150604
0.7859374 -0.6080901 2.005269
-0.2935371 -0.09934804 0.9069862
-0.2932637 -0.1506415 0.8904149
0.918037 -0.4898541 2.001937
-0.07144208 0.05729164 0.7572305
-0.4869856 0.007892526 0.6794512
0.1048786 -0.5585807 1.420259
-0.06004845 0.1538903 0.6656602
0.2366629 -0.5633475 1.798394
0.1890649 -0.3906502 1.29334
0.3905398 0.08291645 0.9725655
0.1800297 -0.2289485 1.120996
0.5538951 -0.2783008 1.419916
0.6714801 -0.1119565 1.385689
-0.09439994 -0.06910517 0.6563351
0.0741843 -0.5893447 1.432784
-0.3716247 -0.1465827 0.9403983
-0.3875253 -0.1646303 1.019719
-0.000633681 0.04417549 0.799934
0.5873506 -0.04832396 1.26579
-0.09903572 -0.09998217 0.7764229
-0.4498773 -0.2532455 1.009765
0.4259438 -0.1645823 1.302947
0.3893442 -0.3441295 1.403052
-0.3789214 -0.1875431 0.7980756
0.08240087 0.1004887 0.7932504
0.04214004 -0.1804043 0.7261971
0.02593544 -0.09468552 0.7323214
-0.0749536 -0.1719598 0.6268851
0.2269637 -0.0694519 1.071248
0.566692 -0.5379769 1.700201
-0.04009647 0.05675415 0.7662
0.522414 -0.308518 1.454315
-0.2888343 -0.3308853 1.161222
0.02497113 -0.09613253 0.746792
0.08747226 0.1349856 0.7574735
-0.1745245 -0.2584633 1.060971
-0.292331 -0.09548512 0.8890976
-0.3728203 -0.1800955 0.7982317
-0.3801327 -0.2328655 0.7849129
0.06982034 0.1501754 0.7026376
-0.08044159 -0.1492665 0.6339387
-0.3967787 -0.05615545 0.7896258
0.4232589 0.01347389 1.093745
0.7369337 -0.7354518 2.235141
0.2789199 -0.118394 1.113697
-0.008801657 0.09161362 0.7776138
0.3526045 -0.002818933 1.098446
-0.4654932 0.008320235 0.654449
0.4562588 -0.3443499 1.551084
-0.2805763 -0.1870358 0.6292962
0.05170756 -0.1992941 0.8148636
-0.1949933 0.1214478 0.6801984
0.4956321 -0.2257748 1.297669
0.1168921 -0.3192738 1.007894
0.674172 -0.672757 2.070127
0.4565417 -0.2627745 1.248689
-0.309717 -0.2479973 1.06291
-0.4213969 -0.1780018 0.9381108
0.3053975 0.09785173 0.9056702
-0.4030298 -0.1895058 0.8603625
-0.01840777 -0.105869 0.8046463
-0.3169823 -0.2765016 1.102023
0.1850359 -0.02574808 0.9827963
-0.3765258 -0.1063973 0.7553354
0.6630749 -0.1578263 1.444397
0.3471311 0.1101283 0.9532636
0.1749405 -0.2820569 1.128372
0.577413 -0.8244218 2.231557
0.2985857 -0.3029424 1.304356
0.1662278 0.1323987 0.7965979
0.1668162 -0.5009006 1.412569
-0.1769802 0.1373502 0.6282972
0.3733221 -0.785933 2.044006
0.1107235 0.03409506 0.8960988
-0.2629258 0.1261871 0.5726331
-0.5308441 -0.05138166 0.6778985
0.06651181 -0.5949581 1.437888
-0.06499153 -0.6238642 1.333081
0.03595293 0.04334489 0.806455
0.8169665 -0.7880577 2.27132
0.1907662 0.07989555 0.8611693
-0.2355042 0.1105622 0.656339
-0.2965888 -0.2178312 1.121418
-0.05832201 -0.00669918 0.6525049
-0.2263848 -0.36246 1.17616
0.04495959 0.02480797 0.8445818
-0.0131114 0.08931115 0.7570783
-0.03836801 0.1388644 0.7034644
-0.385926 -0.3280023 1.173529
-0.2465547 0.09406723 0.6869276
-0.235926 0.1087875 0.6423761
0.02174234 -0.03734903 0.7684107
0.7910284 -0.2674545 1.694545
-0.1228834 0.06076694 0.7309804
-0.6214289 -0.3257622 1.210472
-0.003039464 -0.4789845 1.193919
-0.6712443 -0.2515819 0.9539586
0.07799928 -0.06691617 1.000224
-0.5842952 -0.2231463 0.9653765
-0.4661608 -0.005536276 0.6833838
0.1194265 -0.03192509 0.9546105
-0.1821976 -0.5238162 1.28487
0.3201253 0.1391707 0.9335816
0.2280672 -0.1486168 1.097149
-0.06275521 0.0659852 0.7521499
-0.2221325 -0.5679957 1.301658
-0.2536067 -0.3034996 1.101786
0.3906814 -0.8208281 2.133939
-0.07782467 0.1318836 0.6783415
0.03083625 0.1124428 0.7474101
-0.3005268 0.1275281 0.5919664
0.6074979 -0.735352 2.047835
-0.2461794 0.03216924 0.7418207
0.1602161 -0.01409667 0.9720705
-0.1561745 0.1330326 0.654501
0.5430128 -0.1999737 1.413579
-0.0009927145 -0.2496704 0.7245374
-0.4146744 -0.338522 1.178163
0.1622854 -0.4124471 1.312885
0.1059414 0.08569809 0.8352751
-0.112069 -0.0505489 0.8457056
0.03197427 -0.2081499 0.7046694
0.3505836 -0.184346 1.256893
-0.1743289 0.1068698 0.6759353
-0.28134 0.130865 0.6216891
-0.4042724 -0.178061 0.9186956
0.01611659 0.1615317 0.6748237
-0.1619156 -0.06278007 0.9244907
-0.2212884 -0.0274355 0.8387422
0.01409217 -0.01199304 0.6778723
0.1939629 0.04296125 0.8652663
0.1836568 -0.02539559 0.9801025
0.007280529 -0.03090833 0.7437955
-0.04309507 -0.2027888 0.6424817
-0.3225414 -0.06798754 0.8711508
0.6123724 -0.2920585 1.622602
-0.2918796 0.1325037 0.5959587
-0.1856454 -0.1701829 1.041476
0.2966789 0.09962175 0.9431769
-0.03479028 -0.1823883 0.7439506
-0.06273931 -0.08699796 0.6250962
1.026284 -1.199829 2.948275
0.477099 -0.895063 2.12442
-0.06961193 -0.03278017 0.1858935
-0.01583407 -0.1103854 0.6192774
-0.28171 -0.1751635 1.009681
-0.01843178 -0.0004816914 0.8462448
-0.3277844 -0.05966783 0.8523021
-0.164547 -0.1180061 0.987641
0.09909974 -0.538192 1.368103
0.04603813 -0.2322805 0.8123683
-0.01064315 -0.03565745 0.6625841
0.1861833 -0.4196264 1.282607
0.01112761 0.1120795 0.7775415
-0.3199651 -0.2399195 1.193625
-0.2749791 -0.04219716 0.8513937
0.7541037 -0.7605986 2.19998
-0.0400585 -0.2050026 0.645484
0.1034614 -0.1018709 1.000688
-0.2655242 -0.3180774 1.158218
-0.2526125 0.06986105 0.6834717
-0.1692669 0.130715 0.6319405
-0.5308878 -0.01400666 0.6763693
-0.3736071 -0.1068287 0.8435098
-0.3903292 -0.01392319 0.7274013
-0.5621834 -0.1504665 0.8485674
0.3240671 -0.213954 1.259323
-0.4062254 -0.1876041 0.7846695
-0.3575816 -0.4133632 1.231699
-0.3613257 -0.2192577 0.7493797
0.1028967 0.1147265 0.8021861
-0.3031646 -0.2950468 1.15898
-0.4795057 0.002682491 0.6408823
-0.1883669 0.04960107 0.7474817
-0.3689607 -0.159632 0.9681664
0.1967666 0.03522851 0.9237698
0.2865006 0.1329319 0.9294513
0.3200918 0.09407407 0.9998926
-0.2647007 -0.01648313 0.8037293
-0.3772682 -0.2820705 0.79456
-0.4619804 -0.02208154 0.7325844
-0.2160786 0.07309978 0.7192187
-0.07231657 0.07224444 0.7365722
-0.4045897 -0.1800763 0.766207
0.1385526 -0.1319847 1.033342
-0.3761569 -0.3094536 0.7472805
0.2257773 0.01885246 0.9295753
-0.2093094 -0.1193877 0.9690989
-0.03572585 -0.4749247 1.173303
0.08781592 -0.1298323 0.9982343
0.2971535 -0.05675767 1.071374
0.300353 -0.2309624 1.23376
0.2832736 0.08943956 0.9062746
-0.1814137 -0.1665852 1.029833
-0.09978029 0.08613624 0.739527
-0.1090738 0.0530336 0.7596051
0.01484268 -0.234123 0.7111843
-0.3602102 -0.1692286 0.7205892
-0.04903535 -0.08132393 0.6303006
-0.3676794 -0.3599136 1.164816
0.1120484 0.0728164 0.8907512
0.4437762 -0.02866144 1.192278
-0.2519501 0.06174905 0.664862
-0.5346758 -0.04386502 0.740434
-0.6019045 -0.1127913 0.7474177
-0.5155656 -0.189049 0.9523478
0.1425869 -0.4133658 1.296312
-0.1298889 0.06122658 0.7528849
-0.04631188 -0.1138724 0.700622
-0.3036309 -0.003293995 0.7559053
-0.06677706 0.08117165 0.7290149
0.3545771 -0.07149999 1.152248
0.2066798 -0.06306641 1.021752
-0.6503576 -0.1423895 0.8701321
-0.3967139 -0.303015 1.132611
-0.1405424 -0.01090049 0.837076
-0.4910066 0.04025475 0.6043866
0.5188038 -0.2744419 1.452714
0.2158816 -0.1020395 1.053295
0.8821714 -0.3510015 1.821446
0.1530867 -0.1626076 1.04043
-0.4780213 0.01409836 0.6163485
0.3699041 -0.7814441 2.037381
0.2403485 0.03067577 0.9457397
0.2938619 -0.05548958 1.065274
-0.07344125 0.07280111 0.7488425
0.09312925 -0.02307787 0.9462636
0.3693497 -0.7729621 2.01968
-0.4101479 -0.1680586 0.9571972
-0.0625489 0.1348532 0.6804401
-0.1425717 0.0500865 0.7495949
0.2728959 0.1292473 0.8374611
-0.2498195 -0.2056076 1.134472
-0.03555032 -0.4918818 1.213064
-0.4086503 -0.1741318 0.9091738
-0.335942 0.1652984 0.7538362
-0.2530479 0.06110922 0.6699252
0.4300274 0.04609186 1.129291
-0.07462548 -0.006246917 0.7772753
0.1579346 0.0687798 0.9050397
0.2960877 0.08618277 0.935519
-0.2471504 0.1709777 0.5989701
0.01597677 -0.1082726 0.6445716
-0.5412841 -0.3000987 1.118542
-0.2386212 0.1284625 0.6104657
0.01433538 -0.01252419 0.7699833
0.39843 -0.1364108 1.229463
-0.4826783 -0.1690631 0.8845695
0.1086928 0.02785046 0.9053499
0.3842373 0.05512601 1.061014
-0.4483894 -0.3593729 0.9501126
-0.1908453 -0.291515 1.114944
0.8140491 -0.81625 2.318661
-0.4677435 -0.007566621 0.6646167
0.07920429 0.167324 0.7757698
-0.0817028 -0.150609 0.6657709
-0.3821618 -0.1890463 0.8011194
0.3450071 0.07717901 0.9586467
-0.2385822 0.1296016 0.6152292
0.5286324 -0.2325994 1.381756
-0.04672973 -0.009592831 0.3625091
-0.3171526 0.005842801 0.75021
1.017331 -0.4685031 2.001471
0.1903228 0.08087537 0.8461062
-0.3991133 -0.3052271 1.139751
0.0223689 0.02834566 0.76787
0.4416237 0.04717683 1.070964
-0.1763997 0.1371503 0.6306089
-0.3898807 -0.1727588 0.9585407
-0.02192535 -0.07965191 0.7565401
0.1821104 -0.2407224 1.133846
0.6530401 -0.7789746 2.174031
-0.01821595 -0.101485 0.6078767
-0.1069194 0.05149999 0.7468871
0.2467744 0.1226089 0.8724553
0.1676202 0.08106233 0.8787168
0.07688684 0.1277699 0.7693537
0.1206624 -0.03185756 0.959352
0.1329193 -0.2370176 1.096969
0.1089565 0.02622429 0.8484981
0.03495006 -0.09358541 0.730119
-0.2120115 0.1032074 0.670859
0.174878 0.05347452 0.9081389
-0.4262083 0.01466992 0.6703633
0.01866107 0.1203003 0.7243547
0.0424292 0.07715861 0.7953238
0.4125203 0.001229724 1.098177
-0.1708498 -0.468082 1.272771
-0.006527754 -0.001480011 0.761291
-0.1224971 -0.06517194 0.2202446
-0.1047516 -0.1204217 0.8617281
0.1499893 0.009133724 0.9488133
-0.06618211 -0.5207049 1.266152
0.050806 -0.02812101 0.8715304
0.1428324 -0.1017691 1.021355
-0.3585948 -0.274948 0.7535691
-0.06384426 -0.2134582 0.7652311
-0.4723407 -0.3734995 1.168922
-0.3612042 -0.2465031 1.124681
-0.2832323 -0.2152774 1.12275
-0.4309191 -0.3478386 1.223995
-0.313856 -0.4666795 1.271905
0.6260333 -0.8572009 2.201313
-0.3314442 -0.1714904 0.9877267
-0.4667907 0.04041223 0.6166963
-0.186167 -0.1385165 1.019855
