# .PCD v.7 - Point Cloud Data file format
VERSION .7
FIELDS x y z
SIZE 4 4 4
TYPE F F F
COUNT 1 1 1
WIDTH 1655
HEIGHT 1
VIEWPOINT 0 0 0 1 0 0 0
POINTS 1655
DATA ascii
-0.1483672 -1.56711 2.824486
0.003836931 -1.419517 2.628749
1.594326 -2.159291 3.86511
0.2076689 -1.62001 2.92321
1.62869 -1.801512 3.472892
3.775302 -2.043424 3.634838
1.887719 -2.270687 4.138204
0.3789437 -1.582803 2.909501
1.134143 -1.896638 3.484716
2.012729 -1.104647 2.309553
0.2401963 -1.626682 2.942556
2.173476 -2.005867 3.970145
1.997946 -2.344959 4.279322
0.7539164 -1.731905 3.183614
0.2086304 -1.619474 2.922645
1.116567 -2.110703 3.724671
0.1870501 -1.823942 3.238625
1.382588 -1.477171 2.920155
0.03661095 -1.684207 3.006196
0.3934633 -1.683592 3.050933
2.707337 -2.149886 4.36037
0.09677348 -1.710557 3.052176
0.206396 -1.902834 3.386178
3.137936 -2.631483 4.793332
0.4213848 -1.242662 2.459346
1.054686 -1.26481 1.983983
0.9540697 -1.54771 2.99508
1.797376 -2.362051 4.21762
-0.1456044 -1.565037 2.825057
0.7970496 -1.208745 2.480626
-0.3025183 -1.575526 2.816822
1.732643 -2.114194 3.905409
-0.03263963 -1.36209 2.576635
1.035888 -1.756447 3.26884
0.0916232 -1.713048 3.048174
2.068125 -2.446509 4.35398
0.125702 -1.721254 3.07571
0.5382944 -1.818454 3.242079
2.025986 -1.230796 2.432573
0.3362201 -1.869071 3.326617
-0.1343427 -1.653522 2.951391
1.407607 -2.078872 3.786849
0.2029918 -1.618045 2.917016
0.3465342 -1.878455 3.363661
0.2573248 -1.561849 2.859989
2.891114 -1.783378 3.407321
0.9932443 -0.9206992 2.016552
0.1505539 -1.935494 3.436879
0.7649406 -1.212229 2.452628
0.1261143 -1.560492 2.838192
1.540752 -2.197782 3.999491
1.079808 -1.830545 3.349071
-0.156109 -1.456218 2.674076
0.5705948 -1.762653 3.146526
1.114145 -1.888255 3.484769
3.333403 -2.054033 3.991181
0.2114539 -1.200556 2.384362
0.8741283 -1.324305 2.661283
0.1844111 -1.144956 2.295764
-0.05078997 -1.416184 2.607829
0.07039414 -1.305481 2.49533
0.4007739 -1.301383 2.545559
1.372615 -1.925969 3.488693
0.03888489 -1.352255 2.571411
0.3127149 -1.709895 3.074162
-0.05305475 -1.585515 2.860556
2.763134 -1.556999 3.828804
0.980364 -1.081997 2.339622
-0.2257759 -1.370069 2.542499
1.450969 -1.446911 2.919222
1.695309 -2.059968 3.963106
1.817412 -1.825131 3.548418
0.2692942 -1.660093 3.000079
1.929317 -1.155159 2.293278
0.189681 -1.581237 2.857829
0.7488099 -1.479956 2.873442
1.727966 -2.347758 4.172488
0.1912939 -1.317634 2.549977
2.740189 -2.633262 4.721085
1.449932 -2.190553 3.971278
1.79191 -1.954435 3.683336
1.063119 -1.098213 1.934512
1.546925 -1.224065 2.619095
0.08216685 -1.589797 2.857308
-0.1267512 -1.65172 2.95516
0.6980277 -1.857792 3.323855
0.4114148 -1.296175 2.541632
2.948126 -2.421543 4.508171
0.3668258 -1.363325 2.692344
2.371894 -2.064557 4.009572
1.045719 -1.117322 2.400758
1.588276 -1.459127 2.950725
2.27099 -2.55872 4.570444
0.2939936 -1.653372 2.982728
0.08008368 -1.646344 2.951158
0.7583602 -1.18993 2.442067
0.3464 -1.179589 2.369153
-0.03049558 -1.524514 2.735552
1.014079 -1.129189 2.048828
-0.009605566 -1.658004 2.977318
0.153744 -1.932768 3.435131
2.449927 -2.386163 4.407076
-0.03503888 -1.497228 2.722576
2.021252 -1.110379 2.310221
2.140869 -1.373078 2.650217
0.03496177 -1.445543 2.663229
1.500212 -1.887897 3.534106
0.5853389 -1.466161 2.823964
-0.05326818 -1.539708 2.784425
0.1308908 -1.293533 2.527523
0.6209643 -1.20844 2.446167
1.507867 -1.462869 2.958225
1.017315 -1.642335 3.124598
0.0905908 -1.300322 2.487618
0.08376694 -1.623595 2.911361
0.7839965 -1.494312 2.898793
1.238489 -1.994972 3.62296
1.931199 -1.157362 2.291282
0.1500346 -1.908267 3.334049
0.2794786 -1.145548 2.327734
1.670404 -2.266569 4.031757
2.70133 -2.397918 4.377398
0.01972014 -1.322057 2.553138
0.3310596 -1.653789 3.015499
1.760873 -2.237918 4.004473
0.1092365 -1.924281 3.364778
0.3565765 -1.770742 3.18844
2.169998 -1.753266 3.449262
0.3487593 -1.691126 3.077782
0.7240372 -1.890971 3.403214
3.025256 -2.265705 4.367986
1.010009 -1.264376 2.541165
1.286083 -1.976796 3.610646
0.9677632 -1.24889 1.978877
-0.06855446 -1.487465 2.709632
2.16754 -1.313684 2.475463
0.328066 -1.2281 2.430481
0.9935337 -1.215127 2.042705
0.4706411 -1.716784 3.084973
0.5762629 -1.812406 3.267196
2.128914 -1.311794 2.443785
2.81731 -2.523897 4.573233
0.1744502 -1.642309 2.9569
0.1084422 -1.576986 2.846048
1.465977 -2.175589 3.870417
1.027953 -1.209896 1.998764
0.06259029 -1.665401 2.971058
0.5900356 -1.204383 2.401712
0.9583225 -1.254482 2.098941
0.9726428 -1.946125 3.521421
0.3729006 -1.836144 3.215511
0.353551 -1.250257 2.464216
1.17044 -1.273474 2.643152
0.1018102 -1.652471 2.967034
1.041121 -1.249194 2.538453
1.566574 -1.743872 3.368331
1.062093 -2.01692 3.649352
1.972249 -0.895188 2.328139
1.281156 -0.8316823 2.053756
0.2440343 -1.634269 2.94946
0.8214362 -1.810381 3.305192
0.03149634 -1.568714 2.829049
-0.02820557 -1.616196 2.897011
-0.04557399 -1.513128 2.745187
2.071354 -2.04204 3.85901
0.6008766 -1.648764 3.039489
1.609505 -2.107258 3.840454
0.7670009 -1.68234 3.139639
0.89404 -1.353495 2.704127
0.1368942 -1.687915 3.017729
1.042696 -1.347377 2.697987
0.9876613 -1.458699 2.860928
2.666131 -2.065489 3.941864
0.580651 -1.469345 2.822731
2.13203 -1.040712 2.516286
1.231769 -0.8636401 2.065811
3.95279 -1.904475 3.753496
0.3807133 -1.748456 3.146468
0.5287402 -1.315985 2.59565
1.952082 -0.906157 2.330834
0.6571795 -1.857203 3.340284
0.1788668 -1.559553 2.829866
0.02221015 -1.571775 2.834283
-0.03482478 -1.363853 2.577512
0.7264927 -1.770206 3.203068
1.247722 -1.93813 3.493089
0.1032847 -1.581415 2.845328
0.03939935 -1.56223 2.818317
0.8209412 -1.809412 3.304813
3.563316 -2.011357 3.969854
0.0919627 -1.695272 3.020845
0.1460604 -1.703574 3.058471
1.028077 -1.35752 2.736818
0.9833314 -1.655387 3.116231
1.073779 -1.991789 3.616337
1.223781 -2.089731 3.76349
1.639389 -2.172928 3.942409
1.217677 -1.929416 3.535949
0.05656534 -1.476478 2.709566
0.7542759 -1.395567 2.724228
0.5035129 -1.16757 2.341791
0.2840452 -1.431551 2.701019
3.229947 -2.503831 4.670845
0.2381007 -1.602596 2.898729
-0.08595366 -1.466578 2.684173
-0.04390884 -1.478498 2.692014
-0.03744925 -1.635463 2.919233
3.064082 -2.353683 4.397738
0.101309 -1.292701 2.481174
0.3952286 -1.345791 2.618463
0.2661037 -1.31113 2.550062
3.339025 -2.48165 4.711604
0.3893631 -1.35163 2.684062
1.834554 -1.281321 2.749638
3.704599 -3.07853 5.632372
1.115511 -1.30674 2.654655
0.3811762 -1.823452 3.187989
2.439241 -2.110059 3.954446
3.096988 -2.563373 4.731762
0.08754386 -1.591701 2.855905
0.8060942 -1.811539 3.294945
1.739344 -2.087917 3.976888
0.2579044 -1.83348 3.264609
0.727676 -1.202752 2.445585
0.3729364 -1.845149 3.317393
1.849913 -1.139192 2.147375
0.3554397 -1.680778 3.029796
2.079874 -1.096736 2.578591
0.2359775 -1.550865 2.832497
0.3913909 -1.721492 3.092684
2.053324 -1.485145 2.589363
0.367107 -1.276296 2.504576
0.9622236 -1.118931 2.047526
2.153569 -1.246553 2.536871
1.232153 -0.8658718 2.063412
0.5231309 -1.889772 3.093495
2.958033 -2.303593 4.334434
-0.03524096 -1.634113 2.919671
2.119498 -1.179957 2.446849
1.437667 -1.050039 2.597201
0.3010162 -1.917273 3.354978
2.113088 -2.412237 4.453409
0.1361554 -1.679361 3.010228
0.5894633 -1.762998 3.157701
2.240559 -1.049262 2.535308
0.2867898 -1.399665 2.675159
2.715311 -2.116472 4.193702
0.6901562 -1.271129 2.561466
2.151184 -1.30636 2.441651
1.38417 -1.264892 2.681693
0.5547724 -1.840135 3.145625
0.7350208 -1.553442 2.964321
1.142413 -2.020093 3.690074
0.6184748 -1.441626 2.796963
0.2718798 -1.6979 3.038506
1.499757 -2.285793 4.035916
0.8468204 -2.109114 3.327523
3.192354 -2.468022 4.840919
0.2640988 -1.318439 2.555843
2.658175 -2.187053 3.878403
0.6571773 -1.85825 3.339147
0.3410163 -1.756801 3.128699
2.545254 -2.194835 4.041202
0.1576968 -1.894492 3.277587
1.218237 -1.980931 3.58333
0.2974306 -1.680369 3.043823
0.4809501 -1.665912 3.037747
0.7333091 -1.237283 2.468747
1.280496 -0.9411453 2.414779
0.759173 -1.212437 2.451425
0.001332455 -1.634867 2.921101
0.4651866 -1.749779 3.165387
0.0616837 -1.539562 2.794075
0.3726366 -1.752087 3.143235
1.044193 -1.269618 1.986744
0.7808419 -1.377024 2.721223
4.110912 -1.25551 2.7529
0.9461614 -1.226488 2.048239
0.9972551 -1.220512 2.050046
1.332896 -1.979661 3.643636
0.6253933 -1.588733 2.986571
0.1879218 -1.454594 2.699026
0.0008963678 -1.284209 2.466697
0.5805869 -1.468656 2.821398
1.373263 -0.8132752 2.069638
0.5850906 -1.146031 2.34015
0.5939358 -1.48809 2.863754
0.1450822 -1.628512 2.925659
0.3646797 -1.753432 3.137341
0.08825435 -1.574074 2.822886
0.0538986 -1.41221 2.614866
0.212619 -1.613154 2.901515
1.865112 -1.691255 3.50107
-0.04678214 -1.477944 2.692744
0.9297547 -1.239684 2.052861
0.04378354 -1.507057 2.733365
0.9226694 -1.453563 2.863709
0.2468483 -1.565796 2.856393
2.137581 -1.910239 3.799546
0.5811045 -1.685547 3.078404
0.03963055 -1.602283 2.874621
0.352162 -1.329394 2.593799
0.3265668 -1.481879 2.777972
0.4540532 -1.404677 2.716847
0.3072718 -1.452332 2.736937
0.7822717 -1.222652 2.481252
-0.01776734 -1.510796 2.735361
0.4172646 -1.542792 2.872125
1.846706 -1.033152 2.454684
1.203758 -1.292415 2.66967
0.9113576 -1.343999 2.704921
0.9737796 -1.219213 2.497617
2.229672 -1.630664 3.215314
0.2914064 -1.530892 2.82628
0.3481663 -1.255515 2.466162
0.7189512 -1.183117 2.435373
0.5306659 -1.274357 2.537394
0.2757265 -1.359101 2.633209
0.5920411 -1.469772 2.830624
2.013217 -1.110377 2.550467
0.2404405 -1.675062 3.011537
0.8004503 -1.872327 3.36808
0.28299 -1.344271 2.609031
0.3907311 -1.490423 2.805366
0.4578258 -1.401972 2.716733
0.04840592 -1.33591 2.518678
0.1734196 -1.563805 2.828472
0.2924388 -1.530215 2.825937
0.4096355 -1.433158 2.75147
0.9298652 -1.292965 2.616318
0.6348405 -1.316411 2.503003
0.2108136 -1.614113 2.901037
1.297279 -2.066267 3.780583
0.4277385 -1.220917 2.416994
0.6025761 -1.305759 2.58896
0.01725583 -1.64583 2.93595
0.8338817 -1.034532 2.241979
0.8512618 -1.512926 2.947465
0.5287033 -1.276978 2.537948
0.9836703 -2.022947 3.588161
0.02735311 -1.512317 2.753984
0.6402467 -1.494959 2.884528
2.129919 -1.034155 2.52594
2.05615 -1.213848 2.467113
-0.002622218 -1.531327 2.774482
0.2966488 -1.321442 2.574985
1.872623 -1.791394 3.533254
0.8321248 -0.7386119 1.760514
0.01480253 -1.515048 2.75803
0.213068 -1.109184 2.247935
2.368639 -1.727006 3.43444
0.1902894 -1.452999 2.699511
0.4514831 -1.352012 2.63855
0.1346475 -1.658945 2.989573
1.243465 -0.9719681 2.251758
0.1794556 -1.484589 2.735409
2.009693 -0.8753628 2.318829
2.063099 -1.063041 2.280205
0.7731454 -1.379955 2.719626
0.9613461 -1.292189 2.619947
0.6549243 -1.533948 2.945905
0.7518407 -1.477772 2.872593
0.2211398 -1.362565 2.619138
0.102309 -1.456847 2.685745
1.933955 -1.1245 2.256416
1.388319 -0.9122806 2.169706
0.3541774 -1.506906 2.813246
0.1729312 -1.56452 2.828238
0.2174309 -1.33307 2.574815
3.928143 -2.749607 5.241304
0.0005288188 -1.528738 2.775196
1.048497 -1.336251 2.645337
0.09933771 -1.580908 2.842953
2.02055 -1.400462 2.643292
0.3542357 -1.611997 2.93838
0.6059467 -1.520035 2.916268
0.5887706 -1.386997 2.715014
1.676367 -1.246489 2.713771
0.009945456 -1.41985 2.626036
1.309653 -0.8577244 2.09277
1.399134 -1.758095 3.394137
0.9311501 -1.363643 2.734134
0.2353217 -1.289118 2.509651
0.5785351 -0.818311 1.907658
0.1880521 -1.454877 2.698746
0.5978579 -1.565429 2.939345
0.4239543 -1.539841 2.873137
0.01193884 -1.41497 2.625257
-0.001563345 -1.494696 2.714335
0.2824776 -1.642748 2.951279
0.3057317 -1.479391 2.757082
0.09596849 -1.656131 2.965004
-0.01170525 -1.512785 2.744496
0.042096 -1.509043 2.733024
0.1011962 -1.602512 2.886281
1.787564 -2.255428 4.128897
-0.0005337201 -1.530138 2.774763
0.3786833 -1.546658 2.859234
0.1127525 -1.329198 2.544759
2.508466 -1.93883 3.213662
0.2951768 -1.324265 2.575377
0.2245587 -1.358272 2.617968
0.01359042 -1.515791 2.757968
0.6452059 -1.539176 2.943803
-0.03644488 -1.369979 2.577168
1.021904 -1.019882 1.832685
0.1587297 -1.232411 2.417665
0.786016 -1.425069 2.794033
1.495889 -1.165647 2.559985
1.318132 -0.8510246 2.08865
0.3221589 -1.646457 2.968679
0.6308463 -1.15266 2.381408
0.05250868 -1.327302 2.517138
0.149738 -1.304994 2.518292
0.7433041 -0.8075086 1.92298
0.2873216 -1.667566 3.001313
0.1157023 -1.307393 2.511638
0.8895333 -1.036586 2.068639
0.2652803 -1.308427 2.54783
0.7339507 -1.510654 2.909944
0.1534555 -1.281045 2.479517
-0.0003909432 -1.530356 2.775692
0.6264611 -1.209156 2.445579
0.09819856 -1.60697 2.88747
2.803351 -1.32108 3.705978
0.0980104 -1.655143 2.964657
0.1168916 -1.667592 2.982702
1.533168 -2.047129 3.718195
-0.006404116 -1.497617 2.727669
0.3173988 -1.807386 3.204699
0.979274 -0.9895541 1.924891
0.8558758 -1.361834 2.162613
0.7019058 -1.697514 3.117496
0.6189229 -1.164269 2.382863
0.8001879 -1.752689 3.233809
2.547807 -2.009706 4.021125
2.057968 -1.063248 2.281303
0.1744614 -1.636868 2.942733
0.6880542 -1.266934 2.560055
0.3055801 -1.478859 2.756817
0.5002157 -1.457293 2.781291
0.514793 -1.15755 2.337596
0.1744831 -1.562986 2.828396
0.943826 -1.090627 2.313086
1.337902 -0.8368907 2.08205
-0.03738674 -1.474561 2.670704
0.4300804 -1.653101 3.004352
-0.03772378 -1.576088 2.832844
0.2113792 -1.508618 2.769169
0.1865133 -1.456067 2.698701
0.640507 -1.494857 2.884147
0.1262026 -1.593879 2.86171
0.03271798 -1.449836 2.663213
0.04432275 -1.396912 2.603584
0.3034342 -1.387197 2.68426
3.233851 -1.535767 2.742499
0.2426995 -1.272705 2.487416
0.04403365 -1.506703 2.733465
0.2361953 -1.416932 2.676108
0.2728731 -1.688742 3.04143
0.9883757 -0.9208144 2.021231
0.3347422 -1.161678 2.337356
1.487193 -1.691059 3.260842
0.0408671 -1.587008 2.855032
2.184116 -1.047654 2.569143
0.4452259 -1.461206 2.788278
0.1851468 -1.359905 2.606318
0.200521 -1.318948 2.549895
0.09301438 -1.566453 2.824045
0.03664071 -1.444471 2.663132
3.952268 -1.264686 2.772216
0.04133438 -1.40187 2.603195
1.636316 -1.259883 2.711055
0.03848431 -1.417215 2.637288
0.6645154 -1.520632 2.919836
1.119779 -1.720148 3.24446
0.32754 -1.303985 2.550546
0.01374185 -1.522679 2.772587
0.7745442 -1.379401 2.718818
0.06802879 -1.575423 2.836657
0.5438405 -1.406932 2.734944
0.04938614 -1.656314 2.957986
1.66678 -1.398297 2.877609
0.9423001 -1.190893 2.4347
1.117704 -1.703683 3.207326
0.05351692 -1.323562 2.515938
0.3895621 -1.803351 3.169481
0.2288965 -1.372989 2.63342
1.876311 -1.78976 3.211156
0.2959959 -1.71498 3.067759
0.8425453 -1.247047 2.533929
0.8318322 -1.264322 2.532548
0.1037321 -1.320084 2.531202
-0.08119646 -1.596597 2.854927
0.211248 -1.621132 2.928094
0.3285128 -1.388322 2.681098
0.1002753 -1.535347 2.766813
0.4583083 -1.454833 2.789708
1.727995 -0.9178003 2.25518
0.2961555 -1.28009 2.5032
0.2109649 -1.37337 2.618562
0.6145319 -1.168176 2.389453
0.766488 -1.212932 2.452663
1.255223 -1.657308 3.162488
0.2206765 -1.362316 2.617754
0.0532366 -1.539247 2.79285
0.5204869 -1.396695 2.717099
0.1077308 -1.481074 2.730481
0.7967641 -1.422737 2.799025
0.1698422 -1.305595 2.549385
0.6430563 -1.415296 2.762847
0.04481232 -1.485671 2.708568
1.568541 -1.97445 3.656833
1.712953 -0.2498464 1.085406
0.09515969 -1.622446 2.917056
0.1600924 -1.602187 2.883569
0.2686731 -1.691209 3.039338
-0.01102403 -1.556107 2.809887
3.714636 -1.265015 2.655494
1.214526 -0.5399731 1.321405
2.085317 -1.296534 2.468121
0.02766982 -1.310166 2.513966
2.674728 -2.36218 4.298533
0.02879522 -1.478725 2.738427
0.4383609 -1.649771 3.007033
2.277602 -1.198204 2.352609
1.047624 -1.265559 1.985647
-0.011406 -1.511203 2.744146
-0.02198221 -1.541222 2.787136
0.3255178 -1.482435 2.777148
0.1334507 -1.488115 2.739796
0.7829122 -1.307936 2.641465
2.083553 0.05539019 0.8374352
1.736138 -1.628006 3.229897
0.9353324 -1.361049 2.733477
0.4647596 -1.450182 2.790005
0.7950701 -1.558275 3.034074
0.1281564 -1.294839 2.523331
0.125742 -1.594724 2.861749
1.072518 -1.271152 2.568118
1.520981 -2.195415 3.986148
1.390137 -0.9097669 2.170324
0.7065011 -1.338361 2.546884
1.023842 -1.258277 2.537681
0.1826648 -1.205167 2.383376
0.09431399 -1.622105 2.918366
0.1511253 -1.616773 2.882664
0.0797867 -1.591537 2.857121
0.04510355 -1.523309 2.760954
2.884007 -1.423161 2.671543
1.142072 -1.289952 2.654639
0.9828598 -1.209328 2.042212
0.01710203 -1.513866 2.757801
0.09417602 -1.570138 2.822852
0.6603051 -1.522932 2.919225
0.6248797 -1.43468 2.827358
1.553812 -1.446038 2.858176
0.4472499 -1.442683 2.757039
0.3014152 -1.057679 2.1927
0.09089319 -1.626057 2.916952
0.02855193 -1.573314 2.835082
0.1856258 -1.360724 2.606679
0.07670957 -1.588832 2.875937
0.2714567 -1.565681 2.854918
0.539014 -1.279282 2.268542
1.288033 -1.020103 2.350359
0.3419132 -1.808873 3.194013
0.9240867 -1.367582 2.73257
1.635685 -1.190078 2.624461
-0.05124905 -1.396057 2.579173
0.06082448 -1.262844 2.429778
2.383228 -1.619163 3.26714
1.312533 -0.9593661 2.191647
0.2382502 -1.552194 2.838283
0.2123462 -1.620143 2.928011
0.7198815 -1.182771 2.436463
1.026053 -1.011256 1.956766
0.4355943 -1.071441 2.227597
2.212148 -2.114974 3.983027
0.1453754 -1.628361 2.925815
0.7457733 -1.191779 2.441834
0.07248341 -1.249179 2.411822
0.09314787 -1.570921 2.822736
0.2102081 -1.621414 2.927177
1.535101 -1.638842 3.299172
2.401956 -1.792762 3.063553
0.9579484 -1.320306 2.58995
0.4422433 -1.414362 2.728677
0.2839687 -1.55613 2.857961
0.407431 -1.20651 2.402861
0.09277219 -1.288173 2.476091
0.05950972 -1.542469 2.794786
0.5343218 -1.335083 2.618933
1.458817 -1.47406 2.94354
0.2973149 -1.323096 2.575021
0.2406686 -1.626505 2.942521
0.08214304 -1.259313 2.439273
0.9922968 -1.646815 3.118739
0.9432347 -1.30448 2.620769
0.2522076 -1.672959 3.016371
0.9493048 -1.204386 2.021216
1.89576 -0.7209573 1.6552
1.319882 -1.124498 2.47076
0.5651028 -1.448374 2.795907
1.054779 -1.502965 2.935626
1.077737 -1.325186 2.648199
0.4087437 -1.369339 2.667314
0.8098609 -1.154955 2.389257
1.033501 -1.291841 2.653279
0.121325 -1.497027 2.741096
0.640987 -1.096032 2.255891
0.8526588 -1.241064 2.52685
0.623612 -1.203491 2.446841
0.1279235 -1.714378 3.050315
0.1970823 -1.335497 2.57893
0.1051421 -1.575848 2.844483
0.2970325 -1.069557 2.198121
1.389831 -1.315336 2.770552
0.8015268 -1.416775 2.798706
1.973783 -1.109739 2.300323
0.394118 -1.719395 3.09432
0.7483013 -0.745542 1.727459
0.4130214 -1.547519 2.870717
0.2159831 -1.615113 2.927073
0.3041564 -1.594844 2.909108
4.559784 -1.237683 2.868306
1.553449 -0.9142743 2.218441
0.6085094 -1.302794 2.589535
0.5694422 -1.417455 2.739899
0.7359378 -1.206015 2.448987
0.2065991 -1.276066 2.501119
2.170983 -1.157184 2.34947
0.04524242 -1.483862 2.70573
0.2655312 -1.309089 2.548908
0.3329508 -1.484928 2.793715
2.452439 -1.439106 2.467406
1.395752e-05 -1.406465 2.603136
0.4685509 -1.427823 2.744891
0.147167 -1.299764 2.496947
1.617177 -0.8771667 2.201094
0.3358974 -1.207909 2.399273
0.2472261 -1.293225 2.516982
4.34972 -1.25255 2.872129
0.03872903 -1.553595 2.790614
0.3045641 -1.058156 2.191415
0.3832634 -1.172359 2.358183
0.1265063 -1.592318 2.861765
-0.007559011 -1.31947 2.49633
0.2135199 -1.616877 2.927096
1.705176 -1.690843 3.265464
0.5699261 -1.417337 2.73855
0.02106135 -1.643086 2.937663
2.055561 -1.105957 2.262558
0.2767079 -1.182127 2.364914
1.994013 -1.361701 2.487989
0.2953872 -1.349301 2.618256
0.2648473 -1.311597 2.550045
0.1850327 -1.507887 2.773206
0.4026752 -0.9669037 2.053366
0.8027854 -1.366308 2.726938
0.4732866 -1.059788 2.182034
0.07728018 -1.287895 2.475181
0.3669101 -1.164164 2.33968
0.8577722 -1.463546 2.849686
0.3959669 -1.341332 2.617346
0.6335515 -1.545442 2.940543
0.1807041 -1.511556 2.772515
2.375268 -1.683917 3.700789
1.860341 -1.238703 2.704992
0.3676091 -1.391606 2.685407
0.2544958 -1.672481 3.015208
2.77401 -1.809365 3.313501
0.3090766 -1.670673 3.008702
0.6218039 -1.207305 2.44627
0.235902 -1.417463 2.675601
0.1999971 -1.319781 2.550164
2.044431 -1.757493 3.449986
0.6815431 -0.984719 2.093983
1.435607 -0.9068252 2.199791
0.4007412 -1.55679 2.868453
0.03369118 -1.451222 2.662714
0.09505872 -1.49531 2.730908
0.8070195 -1.416703 2.216479
0.5190162 -1.147247 2.332692
0.1791833 -1.515337 2.772709
1.045846 -1.715829 3.033877
-0.05509371 -1.426342 2.607306
0.3791783 -1.183617 2.364386
0.1820684 -1.307098 2.521027
1.334574 -1.646702 3.273868
0.2706871 -1.312423 2.622368
0.364075 -1.629809 2.936809
0.1880535 -1.584494 2.856434
0.07475539 -1.42039 2.647553
0.1834564 -1.511921 2.773154
0.2158255 -1.369091 2.624137
0.007856091 -1.425006 2.632679
0.9054573 -0.9114895 2.101825
0.2924952 -1.349684 2.618443
0.9534181 -1.278093 2.596058
0.6159038 -1.440046 2.794849
0.2751615 -1.691866 3.046111
0.3432914 -1.774896 3.184953
0.4512901 -1.413696 2.717685
0.5783607 -0.8214812 1.908885
0.8095323 -1.766045 3.212411
0.07427868 -1.235563 2.392177
0.2130018 -1.506987 2.769314
0.9733084 -1.013828 2.091957
0.6512675 -1.535802 2.945134
0.7877439 -1.490455 2.917979
0.2567082 -1.626623 2.979262
2.470112 -1.660517 2.74267
0.6060538 -1.519668 2.915692
1.014069 -1.03522 2.109248
0.3189281 -1.308298 2.552099
0.3512264 -1.330407 2.594368
4.956812 -1.826841 3.902144
1.134082 -1.64118 3.128566
0.8684954 -1.645484 3.107814
0.2786729 -1.343484 2.644299
0.2985276 -1.267606 2.491274
0.4469848 -1.410919 2.717074
0.01636582 -1.506239 2.740385
1.138748 -1.282929 2.634504
2.004875 -1.094894 2.49264
0.3737688 -1.787625 3.186306
0.9629802 -0.9186452 1.803312
0.2474131 -1.042717 2.159946
0.4713759 -1.073743 2.189052
0.3228605 -1.689499 3.053059
2.103486 -1.152449 2.355505
2.124491 -1.7843 3.422344
1.051421 -1.231321 2.60785
0.883207 -1.532866 2.973414
-0.03815754 -1.498136 2.699615
1.088499 -1.205159 2.602588
-0.05458435 -1.541399 2.784255
2.179822 -1.778361 3.441098
1.870306 -0.7264296 1.804457
0.3532518 -1.806546 3.19931
0.1822792 -1.206663 2.38392
1.170498 -1.274569 2.647043
1.308021 -1.444703 2.90008
0.8666029 -1.540351 2.970273
0.5855539 -1.775025 2.940717
0.5445635 -1.352746 2.644886
0.09989233 -1.267727 2.451209
0.8314403 -1.261557 2.531145
0.629391 -1.631291 3.028181
1.245407 -0.8489915 2.060414
0.650476 -1.070347 2.231049
0.1161987 -1.267131 2.452747
0.6257054 -1.194032 2.439973
0.520987 -1.144375 2.330498
0.4730583 -1.058436 2.180299
0.9637156 -1.226535 2.500203
2.169507 -1.297104 2.837062
0.3571362 -0.965344 2.045036
0.8017938 -0.915771 2.089268
-0.02178731 -1.377522 2.565441
0.1441588 -1.438672 2.666434
0.2887219 -1.384821 2.661645
0.3682949 -1.392099 2.68546
-0.05415667 -1.421868 2.606568
0.8223039 -0.9920455 2.200852
0.2055212 -1.128758 2.258563
0.1595356 -1.243869 2.431821
0.03314264 -1.243593 2.40045
0.7896941 -0.8361868 1.84255
0.6808479 -1.271117 2.560513
0.2558249 -1.052258 2.163835
0.1133412 -1.292127 2.480106
0.3218473 -1.08436 2.232355
-0.01052722 -1.359691 2.555382
0.4717683 -1.061013 2.181796
1.029855 -0.8857575 2.064865
1.980256 0.03279572 0.8150725
0.246907 -1.120863 2.27563
2.213424 0.1961175 0.7130294
0.123628 -1.590225 2.838364
0.2326782 -1.313399 2.571985
2.972472 0.8271188 0.1546972
0.7772111 -1.285185 2.527937
2.050963 -1.725302 2.883693
0.7128299 -1.29942 2.603475
0.4343303 -1.213951 2.417486
0.07128297 -1.424744 2.647589
0.1520199 -1.286773 2.480316
0.3733307 -1.622267 2.940635
2.229258 -0.8717052 2.371217
2.003738 -1.143002 2.284034
0.579659 -0.8192828 1.90621
0.2399296 -1.599096 2.899733
0.4846652 -1.682789 3.054499
0.2381792 -1.328935 2.570409
0.4451346 -1.414123 2.715751
0.2972135 -1.491822 2.779735
0.5274027 -1.305798 2.601688
0.3667446 -1.427694 2.723151
0.7108206 -1.488907 2.898957
1.035138 -1.227842 2.520933
0.4615954 -1.417286 2.725299
0.2360377 -1.186231 2.369871
0.1560215 -1.279232 2.47893
1.912052 0.1410712 0.6794145
0.3527091 -1.328857 2.593897
1.875083 -0.1138082 0.9732266
0.3467901 -1.686765 3.045636
0.4093535 -1.45619 2.768932
1.831414 -0.228726 0.8241013
2.109576 -0.02489905 0.6107035
0.4534592 -1.468638 2.787798
0.936462 -1.596473 3.047065
0.2474392 -1.29328 2.517316
0.4388241 -1.362965 2.64877
0.6389647 -1.656083 3.055013
0.4509574 -1.709479 3.057917
0.6210782 -1.636192 3.025797
1.155858 -1.279166 2.643066
0.06068679 -1.264489 2.431007
1.244647 -0.8522379 2.059679
0.5784827 -0.8250822 1.909321
0.5254269 -1.193053 2.40773
0.1525002 -1.152724 2.295851
0.5520087 -1.052904 2.242
-0.0002302459 -1.241877 2.387632
0.3236445 -1.483803 2.777252
0.3098993 -1.400923 2.681857
0.1797279 -1.482516 2.73404
0.4714718 -1.424639 2.745421
0.07159415 -1.287855 2.465143
0.009599791 -1.419677 2.625087
0.726314 -1.311954 2.639104
0.03133794 -1.247276 2.399533
0.1749419 -1.071565 2.17897
0.1033369 -1.592113 2.864343
0.431083 -1.424813 2.728199
0.2204417 -1.455193 2.699535
0.3582283 -1.24076 2.461727
0.00881791 -1.339769 2.521387
0.2848814 -1.340328 2.596908
0.4956577 -1.41801 2.718801
0.02966277 -1.337492 2.519661
0.3425263 -1.132956 2.297097
0.3638106 -1.3476 2.618778
1.470575 -1.181189 2.559855
1.918685 -1.031762 2.147099
0.2158094 -1.378944 2.637325
1.979463 -1.165961 2.617545
0.6716937 -1.584032 2.987127
0.9534947 -0.8521207 1.991675
2.049849 -1.577169 3.490233
0.237352 -1.285877 2.508907
0.6558397 -1.57472 2.977739
0.3439576 -1.010764 2.128218
0.2360407 -0.9685388 2.023982
0.77347 -1.492378 2.914947
0.9186557 -0.8934655 2.092112
1.001935 -1.203344 2.496477
0.3348261 -1.160413 2.336967
0.3575799 -1.375074 2.660456
0.3520702 -1.328842 2.59355
0.01379667 -1.269411 2.425716
1.965832 -1.01967 2.140281
0.7561117 -1.271827 2.537796
0.4295472 -1.119649 2.253546
0.4281679 -1.307388 2.571043
0.3000831 -1.389756 2.686246
-0.02609822 -1.398185 2.563902
0.3276028 -1.227308 2.43052
0.3217058 -1.08431 2.230703
0.1495698 -1.220408 2.394838
0.07563578 -1.235928 2.391443
0.1270145 -1.134256 2.250799
0.6631743 -0.8395916 1.958352
0.2435964 -1.624643 2.943862
2.623477 -0.5362307 1.457182
2.941673 0.672089 -0.1017822
0.1939816 -1.273242 2.484296
1.91807 -0.8541254 2.261659
0.1425263 -1.445045 2.666083
2.905332 -0.2528906 1.377146
0.3276516 -1.551249 2.845006
0.07615511 -1.23425 2.390093
2.151996 -1.159075 2.350539
0.6190318 -1.4408 2.795824
1.955788 -0.9045442 2.337546
0.9771501 -1.310557 2.591739
0.2896662 -1.667888 3.002305
0.7450235 -0.8088607 1.9233
0.3657292 -1.428321 2.721669
0.7787986 -1.229465 2.482837
0.5283049 -1.273521 2.531522
0.6614151 -1.164443 2.397413
1.138989 -1.128343 2.421112
-0.02768294 -1.281739 2.474538
0.6579963 -1.711215 3.105238
0.2376762 -1.417696 2.676131
0.8157692 -0.8471909 1.874486
0.5160776 -1.000041 2.08743
0.2099984 -1.202408 2.382711
0.3209891 -1.304318 2.550988
0.008415513 -1.339479 2.520495
0.750844 -1.371141 2.72237
0.4584202 -1.10803 2.25617
0.3280117 -1.306612 2.551998
0.1169196 -1.310741 2.518979
0.2899799 -1.636815 2.953693
0.2836109 -1.342146 2.596672
3.890173 0.2953645 0.9702749
1.378124 -1.474166 2.905627
0.4329352 -1.422123 2.728527
0.5613076 -1.452445 2.794551
0.3041587 -1.48191 2.756912
0.306491 -1.189929 2.37435
1.899546 -1.054592 2.16652
0.972515 -1.218889 2.497302
0.2731492 -1.320645 2.561116
0.3736683 -1.385904 2.685288
0.7852828 -1.378029 2.726718
0.2962013 -1.65584 2.984004
0.5948194 -1.132861 2.334791
0.3554736 -1.22961 2.433953
1.075035 -0.6099269 1.688761
0.9257536 -1.249475 2.572687
0.5650784 -1.198396 2.42082
0.4010076 -1.294729 2.545579
0.1520377 -1.15452 2.28948
0.8293485 -0.7090667 1.713874
0.2488224 -1.249339 2.456213
0.2020097 -1.331997 2.57828
1.022051 -1.056211 2.330011
0.5773642 -1.471778 2.820883
0.8133109 -1.22418 2.527042
0.6094805 -0.9953874 2.160456
0.2300955 -1.305885 2.541462
0.5755374 -1.470032 2.577499
0.1827196 -1.206069 2.383695
0.5308579 -1.002553 2.088507
1.110304 -1.263046 2.585186
0.1110442 -1.240517 2.40668
0.254665 -1.060124 2.165797
0.383313 -1.4438 2.760612
0.5498406 -1.660314 3.030668
0.4524435 -1.294848 2.573485
0.3651939 -1.344736 2.618232
1.173337 -1.582056 3.084729
0.788825 -1.02949 2.218138
0.7822492 -1.49489 2.918557
0.8677654 -1.168893 2.480896
0.9673247 -1.178365 2.434946
0.04682249 -1.339725 2.519318
0.5372054 -1.000783 2.08886
0.7860571 -1.377593 2.726124
0.4532982 -1.281506 2.255913
0.5982406 -1.080921 2.231738
0.9836076 -1.580588 2.958597
0.8366025 -1.032081 2.239029
0.7884971 -1.633669 3.026001
1.040956 -1.580862 3.02685
1.951674 -1.114449 2.243751
1.344501 -1.473253 3.116689
0.735001 -1.663512 3.088631
0.4287213 -1.142327 2.310883
0.9656458 -1.543543 2.99601
0.3549131 -0.9601006 2.042292
0.1825565 -1.204759 2.383577
0.5746556 -1.674089 3.055821
1.496365 -1.507134 3.2681
1.903299 -0.9010708 2.314718
0.4126662 -1.298361 2.543463
0.05209685 -1.190276 2.314445
1.031552 -0.993348 2.087635
0.9804419 -1.254612 2.588356
0.4979031 -1.04722 2.183161
0.2208373 -1.370802 2.625834
0.505433 -1.058061 2.180648
0.2463223 -1.642854 2.936257
0.6472855 -1.529052 2.915104
1.428261 -1.283694 2.281982
0.7664049 -0.8861158 2.038889
1.04992 -1.381683 2.740472
0.6010306 -1.077104 2.232247
0.6173592 -1.555712 2.933625
1.013677 -0.7899061 1.956607
1.089319 -1.086937 2.394041
0.04026594 -1.403821 2.603434
0.3145858 -1.32936 2.587246
0.2156303 -1.378656 2.637526
0.4643664 -1.45737 2.789
0.3386725 -1.171748 2.354998
0.7696658 -0.8858482 2.034035
0.1665388 -1.332113 2.562163
0.8746349 -0.928789 2.165414
1.161396 -1.483829 3.005346
0.1821807 -1.206823 2.383953
0.6315912 -1.151528 2.380165
0.2471702 -1.294639 2.517564
0.3652501 -1.098832 2.256503
0.8096092 -1.006276 2.207832
0.1478468 -1.433467 2.665991
0.2145474 -0.8474499 1.819103
0.3681793 -1.393867 2.685718
0.04099794 -1.400516 2.60402
0.04738757 -1.335508 2.518452
0.5509668 -1.135241 2.320555
0.1484158 -1.219464 2.396032
0.527795 -1.31797 2.596387
0.2764375 -1.439184 2.70271
0.42432 -1.151034 2.314551
0.1503799 -1.292043 2.49222
0.03740097 -1.282957 2.455717
0.302995 -1.060289 2.192799
0.5829576 -1.203 2.443886
0.6558332 -1.569996 2.961234
0.3682637 -1.136677 2.305048
0.3887932 -1.198585 2.392832
0.2521639 -1.643739 2.974231
1.639094 -0.1281018 1.09198
1.473445 -0.8846928 2.18815
0.3713534 -1.421212 2.721947
0.7513121 -0.8086087 1.924008
0.1472972 -1.270214 2.465065
0.04545618 -1.244254 2.394054
0.3523932 -1.253127 2.465162
0.01703988 -1.138694 2.095213
1.863792 0.2120012 0.3715996
0.1968882 -1.337713 2.579514
0.2060722 -1.361114 2.615119
1.118073 -1.30389 2.655576
0.4505743 -1.190915 2.40572
0.5064514 -1.453874 2.783816
0.06286173 -1.286797 2.463087
0.01849175 -1.224386 2.363373
0.06078361 -1.264358 2.430715
0.1918792 -1.450895 2.698961
0.009542491 -1.196573 2.322522
1.906859 0.2596926 0.319871
1.000439 -1.211715 1.81106
0.3237791 -1.080392 2.228518
-0.03844537 -1.195748 2.312493
1.071276 -0.9688776 2.073608
0.8095596 -0.9154295 2.087632
0.2974844 -1.324161 2.574657
1.000877 -1.211592 1.810834
0.3971859 -1.382381 2.667845
0.856061 -1.011279 2.230271
0.6263081 -1.156935 2.385488
0.05749078 -1.20069 2.336778
1.868118 -1.362479 2.487232
0.2457005 -1.07662 2.176259
0.2784261 -1.176131 2.359368
0.1194171 -1.246106 2.421936
0.15317 -1.28109 2.487813
0.2407518 -1.403797 2.652134
0.1219805 -1.141952 2.275815
0.5101693 -1.401075 2.702765
0.223729 -1.330815 2.575883
0.1884768 -1.318938 2.547714
0.2361821 -0.9692055 2.024467
0.4821957 -1.062702 2.184127
0.277518 -1.431803 2.700606
0.2724789 -1.151992 2.328061
0.2306456 -1.439401 2.679736
0.5010495 -1.264409 2.520023
1.177445 -0.8888662 2.024051
-0.02083804 -1.242575 2.358235
0.1798296 -1.48536 2.732698
0.2754745 -1.222934 2.42387
1.955453 -0.9842344 2.445719
0.9810479 -1.464051 2.858423
0.04608009 -1.345233 2.52164
0.0526912 -1.326027 2.516346
0.4648532 -1.057525 2.184303
0.4290652 -1.43919 2.761359
0.5388398 -1.205708 2.437474
0.2417915 -1.322499 2.569265
0.3221804 -1.089417 2.231853
0.2952418 -1.350457 2.595902
-0.0009136657 -1.248754 2.390084
0.01720535 -1.131883 2.091436
0.05456065 -1.377721 2.576158
0.7266899 -1.225678 2.360748
0.4094373 -1.324592 2.590144
0.421783 -1.245258 2.459651
0.3581009 -1.13422 2.298148
0.9988378 -1.136445 1.842221
0.2291904 -1.323454 2.57251
0.2490715 -1.248194 2.456044
1.997806 -0.8441547 1.819944
0.2719945 -1.155185 2.328956
0.3364196 -1.210924 2.400439
1.243623 -0.848541 2.061442
0.2767168 -1.445863 2.701616
0.3973071 -1.358855 2.638489
0.0210775 -1.23727 2.383183
0.08642044 -1.207599 2.358125
1.850159 -1.308339 2.168107
0.3644455 -1.34677 2.618927
0.7544892 -1.190078 2.444158
0.6998487 -1.134942 2.315077
0.363359 -1.347625 2.618599
0.4791878 -0.9767537 1.915224
2.988279 -1.33645 2.635534
0.08610867 -1.207864 2.358381
0.6765462 -0.7301617 1.751761
0.2406191 -1.426113 2.678091
0.3961166 -1.148313 1.791822
0.1905651 -1.316349 2.547965
0.6058653 -1.304703 2.59023
0.3590705 -1.101897 2.257334
0.3725633 -1.119233 2.292392
0.23458 -0.7601982 1.759221
0.211534 -1.110904 2.248885
0.1823792 -1.6138 2.905501
-0.0004067135 -1.409933 2.603024
10.52015 5.435688 1.31905
0.6567683 -1.531726 2.947047
0.8504626 -1.243667 2.525341
1.779215 0.4226884 0.1108481
0.3753785 -1.505439 2.754107
0.2213141 -1.36398 2.619064
0.3685586 -1.101351 2.254064
0.1013715 -1.388797 2.598927
0.254054 -1.056424 2.165402
0.006997684 -1.225423 2.336617
0.1017263 -1.270102 2.450745
0.0550828 -1.281414 2.463425
0.5874372 -1.036567 2.145382
0.4141912 -1.45105 2.769825
0.3570355 -1.102374 2.256567
0.2338042 -1.329058 2.613557
0.1648639 -1.409056 2.63982
0.4958449 -1.363398 2.667024
1.831161 -1.094806 2.197003
0.7221413 -1.425694 2.724078
1.753519 -1.431279 2.486011
0.236197 -1.18594 2.369693
0.568583 -0.9674332 2.068298
0.518777 -1.288645 2.554019
0.1890789 -1.01142 2.11488
0.2874036 -1.384004 2.660383
0.06436698 -1.34516 2.515341
0.05829464 -1.356042 2.493226
0.1980045 -1.335478 2.579796
0.9853092 -0.8116831 1.893219
0.01766238 -1.383587 2.572932
0.2859651 -1.352924 2.620802
0.2757235 -1.221779 2.423937
0.07446672 -1.422188 2.627536
0.1485813 -1.310126 2.520294
-0.05092067 -1.266293 2.416203
0.1165008 -1.313387 2.519121
0.1122229 -1.294905 2.480984
0.01755224 -1.38591 2.572383
0.5245537 -0.9170787 2.032905
0.2265681 -0.3083631 1.000273
1.518972 -0.1742756 0.7732666
0.08682389 -1.265411 2.441328
0.1543358 -1.280429 2.478548
0.3769546 -1.186064 2.365267
0.3575472 -1.115915 2.263286
0.1059258 -1.245139 2.41069
1.927038 -1.308623 2.395823
0.3041859 -0.9322919 1.987311
0.4127847 -0.9408422 2.036478
0.6015729 -1.07903 2.234053
1.033563 -1.057498 1.844804
0.07524998 -1.42169 2.627775
0.3912426 -1.283468 2.532451
0.3383343 -1.17215 2.354822
0.03887449 -1.243864 2.399586
0.1064618 -1.143709 2.267318
0.7934687 -0.8298956 1.840908
0.03590547 -1.282101 2.456487
0.3785871 -1.208375 2.370541
0.7916405 -1.289701 2.536894
0.09510414 -1.316892 2.52096
0.1417011 -1.34531 2.578792
0.17149 -1.345949 2.58521
1.927479 -1.261552 2.441344
0.3629552 -1.107443 2.260139
0.9817774 -0.9417003 2.095892
-0.047956 -1.388029 2.567567
0.1437092 -1.222481 2.398703
0.3541121 -1.253404 2.46591
0.5230656 -1.195658 2.409665
0.4471683 -1.308341 2.577443
0.7825866 -0.674837 1.683452
0.3038088 -1.007278 2.117213
1.404103 -1.528297 2.537793
0.5292478 -1.339082 2.617845
0.3053528 -0.9321274 1.987481
0.02595923 -1.207336 2.335556
0.3281618 -1.307598 2.552742
1.012758 -0.7800438 1.868989
0.3576742 -1.225519 2.433016
0.5144271 -1.442217 2.774684
0.1069797 -1.134241 2.262689
0.236871 -0.9701265 2.025717
0.05112942 -1.377494 2.577874
0.4330912 -1.214903 2.416981
-0.1796765 -1.290142 2.433568
0.5677081 -1.02417 2.13347
0.09656029 -1.315834 2.52051
0.8090554 -0.9168236 2.087583
3.091948 1.25522 -0.7319964
-0.04180871 -1.319441 2.499337
0.0636185 -1.08194 2.1754
0.1491808 -1.298567 2.515265
0.1836567 -1.306015 2.520492
0.07544888 -1.230462 2.389416
3.170617 -0.03107464 1.156109
0.1722651 -1.343092 2.572606
0.1940278 -1.271697 2.484226
-0.01150331 -1.239084 2.377837
0.828353 -1.105956 2.305553
0.2032971 -1.293068 2.511596
0.3699479 -1.13656 2.306666
0.1352785 -1.301633 2.511917
0.04595703 -1.241647 2.393137
0.3290205 -1.388422 2.680831
0.256005 -1.323631 2.560306
0.2832691 -1.358566 2.623592
-0.04793735 -1.382297 2.566683
0.2830276 -1.195378 2.379057
0.8093249 -0.9073575 2.084216
0.5857163 -1.147007 2.340379
0.2363162 -0.7570156 1.753807
0.1784402 -1.486211 2.735348
-0.04448569 -1.324417 2.500977
0.1947763 -1.339129 2.581222
0.2719443 -1.364458 2.633654
0.5576671 -0.7635961 1.782937
0.3221411 -1.078628 2.22923
-0.1184656 -1.265941 2.41233
0.2050588 -1.225089 2.414355
1.993322 0.422372 0.1979291
0.6226837 -1.217635 2.471074
0.2484637 -1.288694 2.517156
2.768825 -0.2667043 1.346457
0.1484658 -0.8463402 1.692197
0.1094038 -1.301944 2.491628
0.08869315 -1.253951 2.417621
2.073048 0.5105636 0.1085241
0.07355192 -1.282731 2.463171
0.3486014 -1.180431 2.324694
0.5281821 -1.278714 2.538398
0.1495274 -1.29551 2.51295
0.3640518 -1.370415 2.656799
1.767215 -0.1436214 0.7002236
0.2843829 -1.341006 2.596745
0.02979204 -0.9009789 1.682504
0.3796149 -1.311455 2.565795
1.7818 -1.203016 2.545493
0.2498309 -1.199744 2.388577
0.01346976 -1.257343 2.421134
0.105386 -1.138228 2.264866
0.2358969 -1.1831 2.368154
0.9880404 -1.043291 2.111608
0.7380175 -1.202232 2.43994
-0.04630796 -1.112686 2.173674
0.1197911 -1.244712 2.421406
0.8607098 -1.310559 2.52315
1.951243 -1.121974 2.302836
-0.163113 -1.235003 2.313426
0.003804344 -1.180757 2.293311
0.3471107 -1.339451 2.595516
0.0481781 -1.336977 2.517877
0.1037626 -1.242696 2.411765
0.1310325 -1.182973 2.338587
0.3693948 -1.138483 2.307668
0.1722242 -1.301444 2.540169
2.026101 -1.087749 2.557527
-0.0427053 -1.319345 2.484335
0.4024495 -1.19748 2.393349
-0.01020651 -1.183464 2.241181
0.05966101 -1.200208 2.335754
-0.05900373 -1.352408 2.500185
0.09819259 -1.355423 2.531583
2.105668 -0.9072549 1.77509
1.856265 0.3147013 0.2661408
0.04354018 -1.223447 2.385432
0.235136 -1.188538 2.370607
0.4384027 -1.36321 2.64859
0.03250434 -1.364881 2.547837
0.04887209 -1.333827 2.517225
1.013573 -0.7787443 1.870555
0.108429 -1.248865 2.409655
0.06678685 -1.305631 2.492992
0.9500743 -1.247266 2.043366
0.1742172 -1.066847 2.175924
0.1315236 -1.266368 2.45335
0.1289548 -1.044037 2.130333
0.2373624 -0.9791316 2.034115
0.3365725 -1.207268 2.398957
0.8315415 -1.097688 2.301949
0.1946035 -1.272457 2.484532
0.4485423 -1.086992 2.236753
2.061324 0.4928639 0.1228082
0.214835 -1.132939 2.285856
-0.07407303 -1.16571 2.249299
0.279591 -1.431134 2.702363
0.01916985 -1.253712 2.404586
0.01412023 -1.260708 2.421411
0.3154207 -1.117887 1.795808
0.2811437 -1.036231 2.166289
-0.03269648 -1.122707 2.180363
0.3206267 -0.8751438 1.842082
0.01327485 -1.238367 2.379933
0.7507589 -1.272041 2.498002
1.233462 -0.8232939 2.073344
-0.001526039 -1.364004 2.552489
0.1910079 -1.185879 2.355693
0.008227073 -1.346733 2.519304
1.620442 -1.132637 2.06835
-0.001408125 -1.23923 2.386451
1.508635 -1.515157 2.515975
0.07243492 -1.232542 2.390899
1.121768 -0.9344745 1.86539
0.09373205 -1.316887 2.521396
0.1844456 -1.303415 2.519457
2.538045 0.3410822 0.2653919
0.257943 -1.032315 2.152246
0.5063903 -0.9211971 1.864498
0.2082164 -1.216912 2.408612
0.3701244 -1.136908 2.306875
0.3626926 -1.282827 2.507019
-0.02351923 -1.366122 2.558968
0.1027737 -1.268029 2.448405
0.564851 -1.298009 2.58482
0.05087486 -1.186571 2.312297
0.1299303 -1.048382 2.131517
0.3353725 -1.158444 2.335504
0.2001096 -1.300169 2.512078
0.2193581 -1.365402 2.619942
0.2631352 -0.9757923 2.124157
0.3249775 -1.312786 2.551901
-0.03353726 -1.118548 2.179908
0.1403023 -1.342155 2.577012
0.3515729 -1.331972 2.594556
0.06585382 -1.257383 2.427397
0.2420745 -0.976149 2.030387
0.1286552 -1.186257 2.341051
0.6075222 -1.447087 2.824029
1.478874 -1.36643 2.622381
0.740294 -1.196638 2.439239
0.9312645 -1.050854 2.406012
0.1236743 -1.407208 2.637086
0.009198403 -1.315023 2.495901
0.1021827 -1.40004 2.600449
1.910329 0.5879207 -0.06044627
0.765842 -0.8960455 2.023576
-0.03787329 -1.194351 2.313729
0.6936012 -1.141598 2.319429
0.0550645 -1.201478 2.335596
0.4613937 -1.067742 2.188941
0.2174787 -1.334541 2.578407
1.00201 -1.226856 1.801731
0.19609 -1.336962 2.579283
0.8063174 -1.126221 2.315028
0.01792414 -1.384833 2.57284
0.08636664 -1.250366 2.41787
0.3513666 -1.330759 2.594666
0.1274886 -1.322036 2.51734
0.6676866 -0.7188767 1.7375
0.5470492 -1.350409 2.645699
0.8123747 -1.30601 2.552571
0.1189874 -1.261334 2.48235
0.2341078 -1.362595 2.632395
0.07419522 -1.264099 2.435236
0.1456906 -1.273897 2.467259
0.1116032 -1.24618 2.40831
0.3569185 -1.227188 2.43463
0.1069676 -1.134668 2.263303
-0.07782387 -1.276043 2.437503
1.407408 0.4979984 0.8589064
0.2600791 -1.043776 2.158659
0.3215627 -1.304513 2.551075
0.1118416 -1.329651 2.544077
0.5168774 -1.176256 2.258106
0.5108147 -1.098062 2.263913
0.1855427 -1.366364 2.586943
0.5127794 -1.218779 2.448333
1.446137 -1.098078 2.312939
0.2813637 -1.348213 2.610037
1.226918 -0.8266221 2.074135
0.2125955 -1.108114 2.247501
0.4667986 -1.050719 1.961683
0.6913842 -1.06532 2.253956
1.069796 -1.221432 2.515712
-0.0679571 -1.351863 2.522496
0.211887 -1.109259 2.242942
0.8756644 -0.7883692 1.897888
-0.05740861 -1.314354 2.488552
0.6538655 -0.9159001 1.8724
0.6527196 -1.304898 2.563814
0.7698567 -0.8791198 2.003653
-0.04649252 -1.143918 2.152592
0.5165778 -1.39484 2.714477
0.4745789 -1.036024 2.17174
-0.04104976 -1.205994 2.327602
-0.1563498 -1.293557 2.42173
0.1483631 -0.8565514 1.697821
0.7074586 -0.6933775 1.719913
0.04729234 -1.339753 2.519373
0.2187684 -1.364449 2.61249
0.7719272 -0.6808345 1.680603
0.2055606 -1.343709 2.584647
-0.0868655 -1.323923 2.503223
0.4587208 0.1067377 0.4849113
-0.03823037 -1.186123 2.120958
0.7176781 -0.6561196 1.709076
0.2062688 -1.342214 2.584331
0.007075303 -1.322315 2.412452
0.06567125 -1.307985 2.493959
0.1717014 -1.315694 2.531554
0.1731942 -1.342484 2.583945
0.4571896 -1.41887 2.72016
-0.1092813 -1.338508 2.505675
0.3589897 -1.223948 2.432179
0.210577 -0.3930672 1.08548
0.4270003 -1.197377 2.389775
0.5123398 -1.3995 2.714834
0.8586786 -1.314641 2.024756
0.2518532 -1.200935 2.386308
0.00839534 -1.132606 2.153112
-0.2263619 -0.9633687 1.946653
0.6170459 -0.7632036 1.784041
0.09842061 -1.301321 2.482651
0.06626679 -1.303471 2.492561
0.007857934 -1.243497 2.382928
0.00882297 -1.136761 2.155334
0.1723709 -1.312981 2.529786
0.01241339 -1.212141 2.332123
0.02864751 -1.394268 2.580146
0.4103323 -1.261383 1.89663
0.2969632 -1.202674 2.393222
-0.03460057 -1.186931 2.121749
0.04466243 -1.12426 2.231221
0.2429269 -0.8610662 1.876937
-0.2665879 -1.206626 2.314687
0.5083883 -1.365167 2.595655
0.7733037 -0.8763188 2.002949
0.06300941 -1.083131 2.175755
0.1030273 -1.14506 2.268747
0.1084477 -0.8385922 1.772266
0.1057935 -1.138018 2.264854
-0.08068507 -1.201352 2.321125
-0.04055444 -1.209902 2.348988
0.3760446 -1.325138 2.582503
-0.07402921 -1.288453 2.361599
0.1678973 -0.5615609 1.208285
0.4546208 -0.9134775 2.006936
-1.535067e-05 -1.168703 2.284424
0.2811298 -0.7241426 1.641465
0.007258936 -1.139259 2.157786
0.2985665 -1.48225 2.114938
0.02084417 -1.235281 2.369167
0.008941894 -1.135614 2.154263
0.1970817 -1.335474 2.569847
0.7921371 -1.275338 2.522807
0.6654816 -0.8410357 1.812626
-0.01176714 -1.232237 2.372058
0.06083741 -1.200639 2.336309
0.2906319 -1.107826 1.857583
0.2964648 -1.070242 1.771289
0.2370853 -1.16893 2.342135
0.07063667 -0.7971392 1.484259
0.09227493 -1.169701 2.426012
0.172268 -0.5529435 1.192267
-0.08490395 -1.234644 2.300721
0.2417524 -0.8908945 1.895743
-0.03292862 -1.177765 2.115356
0.2406221 -0.9846922 2.077491
0.5483915 -1.309662 2.58601
0.6269896 -0.8044595 1.803568
0.5520848 -1.345001 2.640867
0.3752464 -1.32693 2.582679
0.2618097 -1.342237 2.589072
0.8669826 -1.277068 2.463535
0.1483905 -1.310558 2.519788
0.2606417 -1.167964 2.334715
0.1171908 -0.7197549 1.325696
0.2347003 -1.294214 2.510927
0.3676193 -1.394333 2.685209
0.2395575 -0.7574033 1.752524
2.973711 1.269417 -0.8036435
0.08699341 -1.33522 2.531104
0.258282 -1.049359 1.789849
0.009359819 -1.137925 2.157827
-0.02847567 -1.186339 2.312997
0.1999119 -1.08632 2.201941
0.1046736 -1.280725 2.470105
0.18864 -1.101047 2.234844
0.1544609 -1.141896 2.282644
-0.001896041 -1.202614 2.32811
0.110953 -1.26905 2.495077
0.1667962 -1.330434 2.561714
0.02974331 -1.334357 2.516175
0.2757615 -1.141317 1.830336
-0.006387963 -1.160138 2.274278
0.51345 -1.218209 2.448127
0.1099244 -0.8568086 1.784409
-0.05848183 -1.252269 2.397236
0.2721038 -1.32463 2.563779
-0.07647349 -1.20933 2.324306
0.02169773 -1.231648 2.364638
0.6113458 -1.286252 2.553553
-0.04814748 -1.118993 2.144462
0.3510133 -1.331731 2.594405
0.01069511 -1.239922 2.385887
0.6302299 -1.150634 2.38465
-0.1124051 -0.960655 1.86649
-0.2307291 -1.262665 2.381578
0.1171986 -1.313228 2.518594
1.208578 -1.083974 2.482025
0.3186678 -1.04449 1.80125
0.220768 -1.203688 1.911749
-0.04717698 -1.117117 2.142431
1.819143 0.5461926 0.1987907
-0.03427524 -1.137284 2.159284
0.4738752 -1.150735 1.797059
0.0267145 -1.196683 2.330541
0.3055609 -0.9257912 1.984226
0.325294 -1.037275 1.733023
0.1840039 -1.238935 2.428676
0.2884628 -1.382574 2.660573
0.668117 -1.101974 2.273175
0.01730951 -1.384833 2.572964
0.2176909 -1.095518 1.788527
1.970623 0.667934 -0.1443041
0.6097764 -0.9225593 1.883292
0.4264826 -1.200246 2.39186
0.6703215 -0.8199782 1.816949
0.3194276 -0.8731921 1.631314
0.1373783 -1.341254 2.564437
0.3928461 -0.6672066 1.405697
0.4015187 -1.372969 2.667854
0.1464357 -0.918224 1.595038
0.2145803 -1.133021 2.286107
0.05347969 -1.418476 2.615328
0.7658505 -1.252454 2.49227
0.1167386 -1.265879 2.451964
0.3597882 -1.371603 2.659579
0.2869069 -1.114699 1.863762
0.2502928 -1.19715 2.38791
0.2477477 -1.003618 1.675719
0.2683005 -1.189534 2.376795
0.1327638 -1.28609 2.483964
0.2487541 -0.9767428 2.0357
0.778105 -1.238541 2.490406
0.004056323 -1.180644 2.290292
0.3065108 -1.118042 1.793704
0.1742976 -1.070462 2.177846
0.2525658 -0.9925986 2.041997
0.2727481 -1.322656 2.562163
0.251102 -0.9924664 2.042047
0.04089814 -1.406515 2.603083
-0.0334156 -1.124407 2.166449
-0.01794866 -1.28576 2.450744
0.142737 -1.113301 2.23999
-0.001945793 -1.414195 2.603483
-0.1958477 -1.296484 2.434004
0.481077 -1.277782 2.523231
0.1112849 -1.247454 2.409315
-0.2582376 -1.114555 2.155969
0.5297574 -0.997354 2.084522
0.2351575 -0.976963 2.053232
0.3816249 -1.307269 2.565678
0.514514 -1.092966 2.261533
-0.2095296 -1.308908 2.439026
0.7459021 -1.234243 2.45949
0.1839375 -1.144085 2.293241
-0.1684251 -1.219595 2.308385
0.05203316 -1.185522 2.312364
0.1009406 -1.266358 2.450339
0.2679384 -1.145827 2.327706
0.7372456 -0.9338182 2.067282
0.6940089 -1.294969 2.472222
-0.06362674 -1.194654 2.263446
-0.1135799 -0.9675708 1.883471
0.5748865 -1.394008 2.706196
0.1561481 -1.095878 2.212034
-0.06849094 -1.211078 2.324362
0.2367782 -0.965938 2.025604
-0.1180606 -1.262888 2.381774
0.05984272 -1.228655 2.379538
0.111794 -1.328435 2.542881
-0.01944186 -1.118233 2.140446
0.1032936 -1.304084 2.50745
0.2970703 -1.204494 2.393798
0.6754853 -1.312425 2.480251
-0.05167443 -1.323932 2.503914
0.001450693 -1.113168 2.171216
0.08808344 -1.241734 2.414232
0.08222219 -1.127479 2.263144
0.03210837 -1.311478 2.495115
0.2891749 -1.384954 2.660793
0.2972578 -1.274883 2.493264
0.3114251 -1.184581 2.371978
0.1276975 -1.033646 2.123945
0.1911577 -1.357739 2.583386
0.6705984 -1.154057 2.392613
-0.2252972 -1.160395 2.238455
0.3004132 -1.27637 2.501966
-0.2594247 -0.91504 1.72468
-0.1169783 -0.9568156 1.874206
-0.1486427 -1.111802 2.142577
0.608817 -1.304516 2.586832
0.09994767 -1.302827 2.481838
0.5322412 -1.315045 2.595606
0.2220669 -1.220768 2.411212
0.4315765 -1.219959 2.41775
0.09995496 -1.265388 2.450336
0.2141662 -0.9327469 1.981837
-0.2824529 -0.9468386 1.937526
-0.1000737 -1.245355 2.380245
0.6984872 -1.237772 2.502578
-0.1893566 -1.084463 2.020168
-0.1344663 -1.191644 2.276799
0.1872505 -1.107296 2.238304
0.04545641 -0.9776728 1.931642
0.6666646 -1.287616 2.563044
0.2642073 -1.312422 2.548431
-0.004518552 -1.128314 2.159203
-0.08635627 -1.322964 2.502226
-0.08711307 -1.233032 2.31918
0.5137681 -1.395892 2.715204
-0.1623096 -1.244931 2.380245
0.4364406 -1.313524 2.567756
0.3933249 -1.39078 2.667617
0.1974861 -1.33478 2.569663
0.3493907 -1.408668 2.568452
0.02825949 -1.328127 2.514769
-0.1793871 -1.124321 2.222381
0.3960667 -1.383268 2.667777
-0.05226428 -1.183531 2.291846
-0.1960305 -1.112462 2.085271
0.3212731 -1.083837 2.232175
0.3533549 -1.282578 2.507355
-0.04766828 -1.068696 2.149491
0.023817 -1.217029 2.353507
-0.01932799 -1.284111 2.452663
0.2143107 -0.9320929 1.981594
0.1329291 -1.263447 2.451948
0.2858859 -1.389993 2.662001
-0.06674767 -1.180067 2.255989
-0.02280989 -1.33191 2.492039
-0.01635526 -1.147318 2.162485
-0.08462328 -1.2726 2.339135
0.4865557 -0.9027624 1.881033
0.08824927 -1.245061 2.41559
0.4430438 -1.337584 2.61036
