# .PCD v.7 - Point Cloud Data file format
VERSION .7
FIELDS x y z
SIZE 4 4 4
TYPE F F F
COUNT 1 1 1
WIDTH 1515
HEIGHT 1
VIEWPOINT 0 0 0 1 0 0 0
POINTS 1515
DATA ascii
0.3422696 -0.1833537 1.191448
-0.1303754 0.06570349 0.696576
0.01929009 0.1199481 0.7193421
-0.3013135 0.03099134 0.6740141
-0.1185849 0.05859362 0.7039596
-0.5884886 -0.3030525 1.020467
-0.2117092 0.04248052 0.6980901
0.5830103 -0.6949984 1.944349
0.1624184 -0.0031514 0.9301651
-0.2797684 -0.07733493 0.853251
-0.1063441 -0.2300275 0.8965783
0.1557687 -0.01325622 0.9333294
0.176909 -0.06486829 0.9931749
-0.4324261 -0.01725413 0.6553421
-0.2914453 0.03320396 0.662644
-0.4611266 -0.3506051 1.155095
0.003153792 -0.2491477 0.7346725
-0.5105935 0.04086019 0.5392428
-0.09011871 -0.1120022 0.66181
-0.6667164 -0.2626632 0.8710983
-0.6116342 -0.3896719 1.169767
-0.01711971 -0.0250642 0.6985735
0.1184853 -0.1803556 1.004322
0.3223321 -0.07786705 1.090385
-0.1668619 0.1254672 0.5828601
-0.09300004 0.1084919 0.6638404
0.4256671 -0.1144825 1.180166
0.2656143 0.009288119 0.9187437
-0.0605023 -0.03392282 0.6875952
-0.2086563 0.08310501 0.6418723
-0.2080843 -0.02783033 0.8034813
0.1502867 -0.4061057 1.256085
-0.3507419 -0.2711718 1.035361
0.152954 -0.05335215 0.9445594
0.08119215 -0.01161378 0.905584
-0.460261 0.01498928 0.5941321
-0.4770843 0.02241281 0.5330629
0.2863741 0.09162242 0.9100713
-0.1738664 0.02278143 0.749037
-0.2509403 0.1230494 0.5781795
0.2080207 -0.05843249 0.9859645
-0.3855675 -0.02631029 0.6731697
-0.05099597 0.08007611 0.7036005
-0.4000919 0.006153809 0.6484107
0.05657866 0.07409634 0.7744873
-0.5783437 -0.1077155 0.7236866
-0.2001201 0.1067862 0.5791032
-0.06640473 -0.1774552 0.6892401
-0.5513489 -0.2109854 0.9169968
0.01794521 0.1155604 0.6985782
-0.1599882 0.09428404 0.6173902
0.09040178 -0.03068311 0.9281964
0.1818457 -0.3764841 1.231848
-0.02058406 -0.008390303 0.6787024
-0.6280588 -0.1806274 0.8151076
-0.1239281 -0.1466997 0.9773117
-0.1315442 0.01397698 0.7582605
0.02091989 0.1224577 0.7324896
-0.1871169 -0.3137982 1.076359
-0.1201822 -0.02994373 0.8309441
0.1866144 0.1275171 0.8103026
-0.1817521 0.05065828 0.6574239
0.06859942 0.152086 0.7106597
-0.07344306 -0.1307142 0.6503264
0.2816493 -0.05477993 1.016384
-0.1734404 0.01559001 0.7603891
0.3128251 0.06873575 0.9760779
0.03193378 -0.1370667 0.6848772
0.05511034 0.05966348 0.7579175
-0.2599569 0.04820331 0.6997272
0.09665023 0.07082104 0.8254303
0.2510694 -0.01549624 0.9771954
-0.4828572 0.03977145 0.4929471
-0.1677659 -0.308298 1.071081
-0.3672907 -0.01248305 0.6872765
0.306381 -0.3746483 1.301398
-0.06292122 -0.1032481 0.6219186
0.1519675 0.06400287 0.8589032
-0.2010704 -0.1170197 0.9157379
-0.5255461 0.0475801 0.5423667
0.2482866 -0.03949816 1.026793
-0.3637914 -0.01250907 0.6870797
-0.356668 -0.248987 0.6885288
-0.06152769 0.0488111 0.7238088
-0.08977331 0.141923 0.6470209
0.09573461 -0.1548934 1.000691
0.1619151 -0.2094753 1.070001
-0.05780716 0.1490211 0.6443548
-0.4936307 -0.1824126 0.8970688
-0.3771856 0.01308568 0.6676829
-0.4996892 0.02529708 0.5940531
0.009395462 0.1034841 0.7312762
0.8315892 -0.5141214 1.813939
-0.09296481 0.09849984 0.6533176
0.6413945 -0.6399221 1.974316
0.6364879 -0.7511923 2.103967
0.17025 0.05107285 0.8719968
-0.5551164 -0.2040264 0.8905229
-0.3485636 -0.3780578 1.111312
-0.3279354 -0.02656004 0.7302886
-0.0926484 0.03821588 0.7327753
-0.7261154 -0.435216 1.222903
0.1699583 -0.3954782 1.281375
-0.3991219 0.01184496 0.6275886
-0.2659171 -0.206473 1.094667
-0.3854919 -0.04280197 0.7493778
0.1444495 0.06728889 0.8471456
0.2467437 0.02281828 0.9195626
-0.08874328 -0.06309249 0.6362648
-0.5885637 -0.1940176 0.7442741
0.1852794 0.0489119 0.9051421
-0.3669737 0.002330478 0.6790358
-0.4639947 0.00154153 0.6364582
-0.09201885 0.03620441 0.7266068
0.1406176 -0.09834582 0.9934398
-0.4210068 -0.3457614 1.098004
0.1802758 -0.06097085 0.9644196
-0.4543936 0.01469381 0.5885183
-0.4769096 0.04102227 0.5605321
-0.09158165 0.0783152 0.6931863
-0.1764754 -0.1674904 0.9632736
-0.121853 0.01639697 0.7417406
0.170433 -0.2285937 1.070294
-0.6334937 -0.3841018 1.059837
-0.02025904 -0.001865556 0.7533732
-0.06571952 -0.03788781 0.7746298
-0.07763807 -0.09513573 0.6808606
0.4101196 -0.1846928 1.249183
-0.1714113 0.1119112 0.6392983
-0.04533323 -0.6724142 1.367206
-0.6690654 -0.04038126 0.6210492
-0.01893502 0.05153335 0.7351376
-0.07308156 -0.4509296 1.118377
-0.237562 -0.03204856 0.801232
-0.1772784 0.02422759 0.7601245
-0.7123851 -0.5417739 1.134694
-0.186627 -0.006283236 0.7963752
0.1344575 0.03013807 0.8715273
-0.611159 -0.1965386 0.8424001
-0.3582161 0.06502958 0.5752484
-0.3108312 -0.3256004 0.6769628
-0.7764047 -0.6103727 1.210555
-0.3043818 -0.316901 0.6492828
-0.7808852 -0.4742525 0.9832577
-0.05041115 0.1082176 0.6929517
0.00538774 0.04408097 0.7443443
0.07871421 0.001223644 0.8906873
-0.6156639 -0.4249789 0.9480858
-0.1958237 0.08915687 0.6330734
-0.5683698 -0.221877 0.960095
0.1389386 -0.4657888 1.304818
-0.5656914 -0.2925459 0.9781705
-0.3604597 -0.08665787 0.773846
0.1944164 -0.858687 1.75002
0.01910894 -0.1932121 0.665247
-0.06833499 0.06343769 0.6810715
0.2075216 -0.08534957 1.065335
-0.2246666 0.01875801 0.7259188
-0.2093641 0.04011378 0.6832972
-0.1689786 -0.05083092 0.8273563
0.1291683 -0.3779887 1.181946
-0.450495 -0.341282 1.127867
-0.4128273 -0.07158083 0.7031072
-0.01402818 -0.4250629 1.124851
0.2025608 -0.0604677 0.9932043
-0.2010759 0.06556986 0.6656505
-0.5978965 -0.1366192 0.7421161
-0.1378254 -0.3415466 1.084104
0.18775 -0.8324193 1.695866
-0.2141886 -0.06556977 0.8438426
-0.5177947 0.0358499 0.5804162
0.1693022 0.02675444 0.8851163
-0.7166466 -0.4528772 1.166832
0.3544798 -0.3162059 1.445808
-0.2306249 -0.1849646 1.010757
-0.4350204 -0.0218466 0.649864
-0.4142708 -0.3036358 1.045267
-0.3627986 -0.2950943 1.04408
-0.2830251 -0.4227249 1.156066
0.1081544 -0.05533362 0.9279612
-0.3336074 -0.3657814 1.028984
-0.1050329 0.01014325 0.7111308
0.4275754 -0.2213547 1.322508
-0.1392156 -0.03517747 0.8405111
0.477493 -0.2289124 1.34125
-0.2951286 -0.118559 0.840489
-0.3729316 -0.3169107 0.788454
-0.1330792 -0.2154319 1.015998
-0.4572586 0.01858453 0.5106923
-0.1524718 -0.06404562 0.8800597
-0.5461056 0.03938968 0.5682099
-0.06998913 0.07532699 0.7414301
-0.04601904 -0.08145447 0.6827834
-0.4988765 0.02519716 0.5929497
-0.3526662 -0.4398966 1.132102
-0.2482039 -0.1470638 0.8980814
0.4001239 -0.1205666 1.203543
-0.2277512 0.1057006 0.6194569
0.3600094 -0.1226017 1.18917
-0.1192478 0.09631574 0.6803324
-0.3935595 -0.2304119 1.012083
0.2237503 -0.1453895 1.047537
-0.4426965 -0.3269186 1.044926
0.1700763 -0.6813644 1.655854
-0.311158 -0.4090168 1.139979
-0.3012136 -0.2562108 0.9271565
-0.7714676 -0.4401451 0.9816847
0.07124773 -0.004206122 0.9046013
-0.8366563 -0.5326622 1.170283
-0.3271422 0.0125784 0.6780832
-0.8434862 -0.2084476 0.832771
0.1064905 -0.4154714 1.229164
0.1926843 -0.08160858 1.016076
-0.3101103 -0.1181359 0.9001725
-0.2241644 0.07995903 0.7476981
-0.7217199 -0.373072 0.9353899
0.3573734 -0.09359561 1.141118
-0.003675514 0.1032579 0.7360587
-0.0807884 -0.05033368 0.6580312
0.1913841 -0.05184527 1.007408
-0.5168329 0.05022924 0.5129849
-0.3085141 -0.2331264 1.143751
-0.4173647 -0.001590777 0.6401857
0.108365 -0.09093613 0.962875
0.1792794 0.06029512 0.8713045
-0.3454108 -0.2140426 0.7427238
-0.4287995 -0.317191 1.014487
0.1662584 -0.2124347 1.044101
-0.2157655 0.04657052 0.6804478
-0.475359 -0.04725212 0.7162244
-0.689302 -0.2713966 0.9007997
-0.103593 0.04744221 0.673952
0.223325 -0.1893504 1.114903
-0.7517508 -0.4309269 1.061047
-0.2733526 -0.1581113 0.9753349
0.1350448 0.02358561 0.8904585
-0.4066967 -0.07762694 0.7445504
0.209826 -0.06175089 1.01253
-0.1013718 -0.05645452 0.7210501
-0.6179358 -0.440944 1.099846
-0.7055815 -0.400619 0.9040727
-0.4518976 -0.3300834 1.067634
-0.3651839 -0.2504165 0.7004416
-0.1620477 -0.02857422 0.8236468
-0.6738308 -0.3425685 0.9828001
0.1574804 -0.06682374 0.9949401
-0.1835778 -0.1565858 0.979481
-0.1977488 -0.0668288 0.8403951
-0.3150219 -0.3341894 0.717905
-0.4597726 -0.04795083 0.6922658
-0.02806051 -0.583223 1.217863
-0.7894437 -0.4780109 0.9934365
-0.01764056 -0.02513066 0.7004896
-0.4582163 -0.1345675 0.8154998
-0.3137855 -0.2570536 0.6502656
-0.09446283 -0.02037337 0.7160984
-0.1926261 -0.1606772 0.9468611
-0.7370073 -0.5331758 1.332492
-0.1994119 -0.21348 1.022521
-0.1043023 -0.05349168 0.6687429
0.4502178 -0.6899479 1.965633
-0.02444654 -0.02005794 0.7029749
-0.5190312 -0.1199608 0.8164331
-0.3497027 -0.3543355 0.720404
-0.3526407 -0.04054619 0.7375166
0.5252419 -0.2283475 1.392168
-0.09538633 -0.1010717 0.8521011
-0.1407648 0.01952417 0.7356424
-0.05155009 0.05952946 0.721168
0.3896549 -0.01737555 1.082869
-0.4607033 0.01761808 0.5786725
-0.5221493 0.03528057 0.5831935
0.1704289 0.05218714 0.8769074
0.1115562 -0.05589757 0.9475039
-0.1756043 -0.6188298 1.219574
-0.1401812 -0.1375173 0.9741604
-0.1793612 -0.3234364 1.085161
0.250381 0.02038669 0.8960031
0.03102916 0.001696948 0.7858295
-0.09433963 0.1070676 0.6651489
-0.4568624 0.03182631 0.600484
-0.2636301 -0.07559962 0.8656056
0.1557177 0.04631541 0.8759578
-0.1656935 0.03674946 0.7223296
-0.6291574 -0.3436671 1.008124
-0.3264896 0.08249127 0.580344
0.1785955 -0.3103071 1.159102
0.107191 0.07047489 0.8550006
-0.3954972 -0.181753 0.9210918
0.1842503 0.005898017 0.9135535
0.2113006 -0.3290045 1.293424
0.1065198 -0.06343098 0.9354999
-0.7709216 -0.4713959 1.12894
-0.5319447 -0.2500575 0.9620908
-0.0851412 -0.3497447 0.9954209
-0.5060308 -0.006387522 0.6103543
-0.4734967 0.004590329 0.6291692
-0.5498312 -0.2818682 1.022169
-0.3877881 -0.4493572 1.14475
-0.2412698 0.06649681 0.6553081
-0.3465067 -0.3583128 0.8093345
-0.1206451 -0.2901427 0.7447366
-0.04382492 -0.0776688 0.6709218
-0.2965882 -0.2237678 1.092475
0.02467207 0.1307343 0.7492561
-0.4284475 -0.3231495 1.039039
-0.3316803 -0.08661628 0.8052054
-0.2578596 -0.2762482 1.087959
-0.3268168 -0.08515632 0.8345358
-0.1383417 0.04098449 0.7147814
-0.4877599 -0.01009093 0.5881356
-0.3353234 -0.2793451 1.074717
0.02553869 0.09837228 0.7953728
-0.04299919 0.1095484 0.725439
-0.09351294 0.1054498 0.6573508
-0.01739245 0.008883496 0.7744063
-0.6760885 -0.3494481 0.9931178
0.4650991 -0.7114037 2.027512
-0.5406368 0.04612964 0.5823076
-0.2501223 -0.1824291 1.009744
-0.474577 0.00806765 0.5841243
-0.9375882 -0.5226071 1.083021
0.1798673 -0.8105783 1.752169
-0.2754897 -0.09052206 0.7616298
0.2872295 -0.2104637 1.202876
-0.0255581 -0.5199901 1.188048
-0.6154771 -0.198075 0.8475541
-0.4533905 0.03416547 0.5596253
-0.8478025 -0.5484497 1.186408
-0.7213624 -0.3440566 0.7262405
-0.05923649 0.1210503 0.6244844
-0.1118338 -0.03785748 0.7999896
-0.5558049 -0.08002805 0.6709619
-0.364205 -0.1446634 0.8827477
-0.1520687 0.01935258 0.867006
0.09832796 0.1106124 0.7682946
-0.005321153 -0.1171964 0.7167311
-0.2154045 0.1011221 0.5913047
-0.6058944 -0.3791723 1.142746
-0.4898688 -0.1810424 0.88986
0.1245078 0.06749115 0.8419147
-0.5233864 0.04137935 0.5504655
-0.5106096 0.01120827 0.5524709
0.1409516 -0.3115975 1.122017
0.1096556 0.0730333 0.818601
0.07625977 -0.0152968 0.8790483
-0.3386082 -0.07553893 0.7719375
0.2138823 -0.4559795 1.314497
-0.6238875 -0.1255693 0.7570272
-0.5499545 -0.2069059 0.8887353
-0.02915913 -0.008060092 0.6748819
-0.2379957 -0.1360527 0.9155244
-0.3699712 -0.1683396 0.7180271
-0.6302366 -0.3100722 0.9626158
0.01323327 -0.0793359 0.6990153
-0.03930465 0.08285688 0.6908298
0.2778293 0.01183658 0.9508493
-0.3393902 -0.2358917 0.6522395
0.6172457 -0.2961273 1.560593
-0.5033923 -0.1789325 0.8812775
-0.3538718 0.020759 0.6727528
-0.4456323 -0.003024471 0.6518888
-0.1334096 -0.2477949 1.020324
0.1731609 -0.2829168 1.163247
-0.5642766 -0.1730096 0.7995942
-0.3449792 -0.1622795 0.6913176
-0.1981231 -0.1473408 0.9760492
-0.07268726 -0.004632151 0.7752964
-0.06892396 0.07523327 0.7303439
0.1680247 -0.2722655 1.085689
0.1898302 -0.4187462 1.286908
0.002438029 -0.2285659 0.6986725
-0.07883729 0.04062669 0.7104252
0.5347675 -0.1224465 1.306994
-0.1745455 0.009762136 0.7778856
-0.2402003 -0.136374 0.9224434
-0.1644953 -0.2982595 1.129674
-0.2414359 -0.3373953 1.109781
-0.3606793 -0.1682266 0.7401648
-0.3608934 -0.1957049 0.7054089
-0.3374563 -0.1907645 0.6955729
-0.07129411 -0.109946 0.6219924
-0.4327827 -0.2667317 1.031492
0.1793464 0.07831135 0.7927632
-0.02100562 0.002340078 0.6980814
0.04242975 0.02311845 0.8017889
-0.6652232 -0.2179074 0.8451665
-0.1723364 0.02317449 0.7398335
-0.2048289 0.1114329 0.5946311
-0.371886 -0.05262832 0.7418444
-0.298196 -0.2227694 1.099268
-0.2978196 -0.3129065 1.065149
-0.04154527 0.05519677 0.7390901
0.1834862 0.0216876 0.8896143
-0.3748014 -0.1832997 0.6968331
-0.7429669 -0.3189048 0.9145822
-0.1567164 -0.1336564 0.9875469
0.5457343 -0.4798419 1.683289
0.2998657 0.1102679 0.7800918
0.2062965 0.05711506 0.787388
-0.2955506 -0.2354893 1.019324
-0.4049487 -0.321226 0.8366254
-0.3069778 -0.1595706 0.9170832
-0.4840709 0.04206228 0.5950263
-0.4428142 -0.0673086 0.7435752
-0.1848743 -0.09908625 0.8983272
-0.3534873 -0.1562954 0.8881204
-0.1748194 -0.316256 1.060341
-0.2679359 -0.009059915 0.5889676
0.1921014 0.0351722 0.8940052
-0.07215071 -0.1176486 0.7139469
-0.1631835 -0.1321117 0.9577103
-0.5730395 -0.3214767 1.01115
0.2423966 -0.2886775 1.228441
-0.007427868 0.05034304 0.706103
-0.7480589 -0.4319999 0.9632297
-0.5688487 -0.1461782 0.732776
-0.2053 -0.2157182 0.9618268
-0.4083031 -0.1868234 0.789652
-0.2923638 -0.307421 0.7260292
-0.2996868 -0.1795079 0.5909319
-0.3232053 -0.2733217 1.010625
-0.7462117 -0.363693 0.9631539
-0.4069775 -0.3274076 1.106925
-0.1816289 -0.3250139 1.084961
-0.03269903 -0.4543818 1.126254
-0.119327 0.0597426 0.7115654
-0.03368568 -0.4673689 1.15419
-0.3061482 -0.3220906 0.6615234
-0.2616511 -0.1637666 0.9390976
0.1202278 0.03296018 0.8791703
-0.3437719 -0.2832879 0.7223696
0.5057011 -0.3206393 1.490877
0.3257317 -0.2682362 1.272325
0.1986683 -0.003852787 0.9514182
0.1250608 0.0587992 0.8623564
-0.3977513 -0.0906348 0.7414463
0.2693388 -0.1778041 1.117448
-0.3119698 0.0164862 0.6621568
-0.5896608 -0.3677292 1.069768
0.05169232 -0.5779161 1.317756
0.3559985 -0.1878575 1.229821
0.09027725 0.03523925 0.8630143
-0.2929332 -0.04465648 0.7832198
0.1378389 -0.6634979 1.418014
-0.3298962 -0.1470413 0.9172871
-0.4327756 -0.01246179 0.4979838
0.0636762 0.07647569 0.7987361
-0.5493607 -0.1790871 0.8476658
-0.5810542 -0.2075431 0.8515642
-0.3478866 -0.240593 0.6685935
-0.2010724 0.03292108 0.7141603
-0.4480904 -0.3331482 1.079031
-0.3824657 -0.3712099 0.9218894
0.2038431 -0.09234278 0.9974135
-0.4236154 -0.01076609 0.5236003
-0.2155785 -0.2578251 1.053302
0.2322758 -0.07219996 1.01237
-0.3902235 -0.3778163 0.8797147
0.02535375 0.1006343 0.7964882
-0.4891238 0.04464957 0.5747107
-0.2507931 -0.1812814 1.003689
0.5142627 -0.2841205 1.459273
-0.2750382 -0.2691225 1.058388
-0.687274 -0.2874131 0.6099746
-0.006947828 -0.03194835 0.702619
-0.5453386 -0.2167313 0.9261842
-0.07154247 -0.1110713 0.6500487
-0.3089568 -0.331344 0.6523901
-0.04370765 0.1080476 0.7186547
0.1588701 -0.03455845 0.9314067
-0.1663883 0.1284491 0.5952337
-0.2762655 -0.1306701 0.9255884
-0.4010892 0.0139194 0.6316509
-0.3341196 0.02700479 0.7172903
0.3002074 0.1133208 0.821453
-0.2551025 -0.1970708 0.9947848
-0.5046183 -0.1784476 0.8830707
0.02013592 0.05556881 0.7623119
-0.5250013 -0.2461046 0.9259326
-0.6152461 -0.3839048 1.119251
0.5314507 -0.1207317 1.300937
-0.06182364 0.04502643 0.7032921
-0.2726764 -0.2742491 1.050741
-0.1752685 0.02396393 0.7570994
-0.2159713 -0.002564676 0.8553931
-0.2005443 0.0652139 0.6634263
-0.1077291 0.05675449 0.7110501
-0.5003081 -0.02210904 0.6162332
-0.304182 -0.1187676 0.8728766
-0.253511 -0.01632535 0.7709809
-0.498605 0.02335306 0.6123462
-0.3951108 -0.1524141 0.8686064
-0.1719385 0.0399134 0.702493
-0.1564305 -0.5964215 1.254337
-0.3453579 -0.2407206 0.7146372
-0.1608007 0.02022086 0.698056
-0.04558276 -0.180108 0.5889487
-0.5303826 -0.211301 0.8996671
0.1632848 -0.01288611 0.9310455
-0.01475022 -0.2316091 0.7175068
0.1717137 0.05230646 0.8799773
-0.1981828 0.007127333 0.7224926
0.3899935 -0.1492515 1.190788
-0.3645737 -0.144845 0.8828146
-0.245136 0.08437362 0.6030531
0.337841 -0.3749203 1.343502
-0.2962631 0.004534791 0.7000289
-0.5687264 -0.2975438 0.989012
-0.487918 0.01429996 0.5730177
-0.5342911 -0.2195675 0.8759345
0.2277059 0.1011335 0.7933226
-0.3306471 -0.06828773 0.7491866
-0.07001647 0.04683935 0.7212825
-0.06897791 -0.01654362 0.6733879
0.1625822 0.02260881 0.8983182
-0.7285213 -0.3235768 0.9766575
0.05335236 -0.3392083 1.054692
-0.08442382 0.101229 0.6850598
0.0471101 0.07703827 0.7703962
-0.3721872 -0.1675124 0.719156
-0.04038746 -0.1162571 0.6481426
-0.3906609 -0.05467309 0.7410701
-0.2022543 0.002968207 0.7885969
0.233723 0.03062737 0.9138397
-0.02702209 -0.5082471 1.154267
-0.01291591 -0.4245896 1.121426
0.2837631 -0.1138534 1.105294
-0.2193341 -0.2202865 1.017925
-0.2748999 -0.1237842 0.954739
-0.5132202 0.03491369 0.5752625
-0.001164075 -0.2242889 0.6558675
0.2705995 -0.01469191 0.9725989
-0.3296861 -0.08723669 0.8341928
0.05498916 0.06777006 0.7660768
-0.2413729 -0.1972878 1.098399
-0.1452373 -0.1529568 0.9920639
-0.167829 0.1283987 0.5944504
-0.4788392 -0.02583057 0.6482888
0.1769306 -0.1903998 1.093632
-0.2607563 -0.1901526 0.993074
-0.1617916 0.0151954 0.7407679
-0.5973707 -0.2263982 0.8527207
-0.09627882 -0.06150546 0.7376723
0.163757 0.05308582 0.8788403
-0.3587471 -0.1178157 0.9265418
-0.08851527 -0.08618563 0.7132865
-0.2097115 -0.1188345 0.9109218
-0.02060174 0.08225416 0.7210962
0.3490421 -0.8673158 1.968112
-0.5869754 -0.1484962 0.7964445
0.2875178 -0.1176687 1.090501
0.2479007 0.02299068 0.9261584
0.1042808 -0.06201877 0.9127502
-0.3061109 -0.03767636 0.7776774
0.1224202 -0.2114119 1.032614
-0.08815591 -0.01413622 0.726733
-0.5059021 -0.1078072 0.7040792
-0.211937 -0.2526927 1.033458
-0.3645236 -0.1604972 0.907905
-0.5139883 0.04107588 0.5425858
-0.1709075 -0.004870198 0.7796193
-0.1005604 0.04910157 0.7479744
-0.5187753 -0.2457408 0.9156063
-0.280947 -0.09721384 0.8704054
0.01811148 -0.1925743 0.6582192
0.1575767 -0.2039134 1.041697
-0.2095136 -0.02601982 0.7933316
-0.5370964 0.05679353 0.5254019
0.08485696 -0.03044374 0.8894808
-0.2428268 -0.3500601 1.096239
-0.1175357 -0.03171286 0.818384
0.2035468 -0.06060468 0.9904925
0.1830389 0.006635136 0.9079231
-0.06536782 0.0913565 0.7519327
0.17172 -0.186368 1.066956
-0.244752 0.05971144 0.6431831
-0.2648071 -0.2568563 0.7524037
-0.3106257 -0.05608937 0.8100361
-0.5167392 0.0364879 0.5413763
0.09203591 -0.03438328 0.9192263
0.1520308 -0.1591814 1.020401
-0.4102448 -0.3098186 1.070682
0.1676918 0.07602103 0.8763226
-0.2416501 0.09633146 0.5808691
-0.3709565 -0.2614478 0.7743911
-0.287576 -0.283776 0.8205406
0.7201949 -0.6680212 2.137464
-0.3973035 -0.1552557 0.9316123
-0.6925051 -0.3063956 0.8682033
0.04508663 0.01435406 0.8190054
-0.05132191 0.08122841 0.7039074
0.2302954 -0.2235774 1.126133
-0.1076271 0.05749261 0.7148333
-0.1766817 -0.1322829 0.9729418
-0.1745061 -0.1612102 0.9843497
-0.2858707 -0.1489294 0.9225254
-0.3691809 -0.07243927 0.7190756
-0.213267 -0.2258484 1.001304
-0.5910441 -0.1494835 0.8023871
-0.1788014 -0.1730326 1.00391
0.15685 -0.3060419 1.120039
-0.3853995 -0.2156282 0.7926713
-0.7898347 -0.6284552 1.238435
0.03176727 -0.2021665 0.6776417
0.0151351 -0.08455449 0.781141
0.02878612 -0.1857154 0.6587369
0.201718 -0.3688085 1.233131
-0.322379 -0.02722545 0.7187166
-0.2469738 -0.01716792 0.7504027
-0.1904833 0.09776708 0.6306286
-0.3042268 -0.3202425 1.07017
-0.4047731 -0.2131682 0.9333558
-0.3501217 -0.1643958 0.7207125
0.2060488 -0.1056248 1.030279
-0.2256612 -0.08495952 0.9007756
-0.03786507 -0.1966831 0.6118513
-0.1987433 0.03018648 0.7063211
-0.7359015 -0.3483247 0.962032
-0.03355189 -0.4525079 1.116027
-0.3546774 -0.1878687 0.6936401
-0.01590009 0.06151267 0.7113212
-0.3836144 -0.172174 0.7285564
-0.5456756 0.05374067 0.5367203
-0.6838349 -0.4564319 0.8614443
-0.272086 -0.09370422 0.8343903
-0.09502261 -0.1200937 0.7217461
0.06780155 -0.005622624 0.8824264
-0.1706565 -0.05135425 0.8416951
-0.6762532 -0.3923272 0.9796737
-0.3235855 -0.2710087 0.9832273
-0.5840747 -0.002704141 0.6627486
-0.4828265 0.01573231 0.5689229
-0.0676612 -0.03780896 0.694523
-0.336835 -0.3257582 0.7856386
-0.1386996 -0.2845077 1.054484
-0.2884834 -0.1803107 0.9583197
-0.1246951 -0.3439904 1.072755
0.1553935 -0.4586171 1.300312
-0.1936562 -0.1290859 0.9375239
-0.006243797 -0.2258034 0.6513835
-0.09897764 -0.1098248 0.812254
0.1796362 -0.09424853 0.9898337
-0.3475541 -0.2519923 0.7329364
0.09166677 -0.02142078 0.9162444
0.5560734 -0.3680031 1.679843
-0.06427547 -0.5663759 1.232073
-0.2900165 0.03281463 0.6598634
-0.4499791 -0.0269899 0.5933713
-0.3853919 -0.0537697 0.7375767
-0.238617 -0.09691541 0.9028466
-0.4375131 -0.006263064 0.6433464
0.02499713 -0.1994201 0.6425409
-0.1429145 0.0806744 0.6724908
0.133142 0.05848236 0.9150421
0.1869039 0.04745111 0.8706519
0.1989132 -0.1507814 1.04354
-0.6304113 -0.3803189 1.050424
-0.1196581 -0.5755314 1.175822
-0.7875633 -0.4055832 1.021047
0.1695013 0.05229238 0.6940684
-0.08520348 -0.4502309 1.14004
-0.2106666 0.04132085 0.6876118
-0.5943628 -0.1202608 0.7163401
-0.3824385 -0.07895623 0.7515205
-0.09194463 -0.6133054 1.22826
-0.004757111 0.05437158 0.739902
-0.1154382 -0.4272254 1.112603
-0.572867 0.02422977 0.5827779
0.07936905 0.09952528 0.7835652
-0.4474268 -0.008729031 0.6665329
-0.2997928 -0.2390705 1.035793
0.1337641 -0.01940773 0.9244943
0.4961241 -0.05088917 1.186867
-0.1499788 -0.2708555 1.030073
0.347935 -0.09268151 1.127134
-0.3418666 -0.1158935 0.8684303
-0.003779015 -0.1092041 0.6374795
-0.05854521 -0.4879155 1.188441
0.09667446 0.04300609 0.867497
-0.1163634 -0.5567476 1.136271
-0.7017251 -0.4407046 0.9235602
0.02696736 -0.07809781 0.6940203
-0.4031798 0.09916469 0.5157036
-0.0600065 -0.03736122 0.6171228
-0.7187734 -0.402344 1.080703
-0.1267963 0.04119206 0.7169887
-0.2757755 -0.07603803 0.8404043
0.123709 0.03307107 0.8641452
-0.106243 0.1383896 0.5970412
0.1147102 0.09858967 0.812861
-0.215399 0.03080354 0.671674
-0.4217057 -0.3043626 1.082395
-0.1340109 -0.3169353 1.081764
0.3190065 -0.06676275 1.046923
-0.3738304 -0.1677177 0.7219961
-0.005346166 -0.08014137 0.7117228
0.1878111 0.07984366 0.8401113
0.06456871 0.1013916 0.7697971
-0.3853539 -0.2148542 0.9608482
0.09855904 -0.5213181 1.322127
-0.0457739 -0.1845483 0.6076561
0.1000583 -0.1323694 0.8996153
-0.3769305 -0.1692788 0.7153813
-0.3763775 -0.1693233 0.7147304
-0.4196494 -0.07825722 0.710313
-0.02664612 -0.1033747 0.6446071
-0.3735791 -0.1676178 0.7216148
0.2379137 -0.04707916 1.01121
0.1903459 -0.2405121 1.084907
-0.05823508 -0.1782065 0.6237981
0.04086211 -0.4461827 1.165674
0.2004413 -0.1527645 1.049096
-0.3561039 -0.01622136 0.6777948
-0.479838 -0.2598776 0.9169357
-0.06289341 0.04650193 0.7133486
0.03750275 0.1297227 0.7154905
-0.2158305 -0.219418 1.00829
-0.1246454 -0.1459944 0.9737398
0.147298 -0.2576579 1.062758
-0.5489129 -0.2023433 0.8808556
-0.1802785 -0.3220153 1.076325
-0.1777858 -0.2112751 0.9753748
0.2014782 -0.3690409 1.233612
0.451957 -0.2287897 1.378429
-0.0007296334 -0.09735849 0.7907254
0.3160933 -0.3794546 1.328855
-0.3979934 -0.1420883 0.8783311
0.6347059 -0.4867489 1.754548
-0.1171778 -0.08786102 0.4471731
0.09581176 0.04206607 0.8580168
-0.5121127 -0.2437777 0.9288835
-0.1764752 -0.1367157 0.9561053
-0.08457981 0.1179849 0.6745444
-0.5745391 -0.2217063 0.9323431
-0.2766588 -0.09162411 0.847993
-0.5229718 -0.2064131 0.8773312
-0.4929249 0.02721501 0.5858104
-0.2118434 0.0420656 0.6958576
-0.4346777 -0.06569381 0.7280415
-0.293382 0.02908362 0.6597157
-0.340096 -0.2553226 0.7114977
0.2666998 -0.3122829 1.262491
0.6251397 -0.3066771 1.553442
-0.2887248 -0.08266041 0.8281811
-0.3950887 -0.01738828 0.6732329
-0.2104442 0.1055525 0.5924948
-0.4113951 -0.03334173 0.6976704
-0.3491389 -0.09556224 0.7797347
-1.036259 0.04705079 1.155229
0.4357241 -0.3235074 1.488472
-0.104047 -0.03795333 0.6675833
-0.1285333 -0.2184348 0.9453171
-0.5826424 -0.3327401 1.031299
-0.3659971 0.0694916 0.5884737
-0.05027214 -0.08478962 0.6847373
-0.9936833 0.04266328 1.110382
-0.3005032 -0.1898148 0.9592582
-0.3723192 -0.1806371 0.7929109
-0.2565463 -0.1981368 1.004985
0.2292325 0.06586769 0.8583819
-0.004315837 -0.02876743 0.6560041
-0.4480221 -0.7333449 1.522818
0.2232166 -0.2198728 1.099311
0.1844767 -0.2860337 1.152289
-0.8881772 -0.4846879 1.066181
-0.1895512 0.09906638 0.6262859
-0.5125986 -0.005965636 0.6165248
-0.675036 -0.3490762 0.8752612
-0.4774857 -0.162251 0.8757099
0.04261968 0.04574401 0.7940589
-0.1752879 -0.1309233 0.9625015
-0.2121681 -0.2533006 1.032147
0.1977061 -0.05581145 0.9654685
-0.2386074 -0.1007938 0.8787434
0.317633 -0.1511911 1.153877
-0.01420142 0.08386401 0.7099713
-0.7315654 -0.4204743 1.053049
-0.2595687 0.04777564 0.6969652
-0.1796518 0.07588487 0.64353
-0.1770167 -0.2699361 1.032091
0.1931708 0.03552683 0.916833
-0.5752583 -0.1464955 0.7812326
0.1397208 -0.003277581 0.910479
-0.4563739 -0.01976414 0.6817052
0.408922 -0.1538094 1.23481
-0.08311238 0.1129109 0.6548851
-0.6650231 -0.2991617 0.8936766
-0.4303344 -0.06238224 0.7756107
-0.8164759 -0.4146861 1.194553
-0.4869252 0.02251336 0.5796559
0.1140908 0.1169227 0.7780117
0.01689108 -0.1106451 0.6597989
0.1115881 -0.05577127 0.945109
-0.1216764 -0.147382 0.9815305
-0.2242783 0.02034643 0.7180538
0.03632007 0.02984951 0.7912808
-0.3034891 0.04499691 0.6369565
0.01643977 -0.1103062 0.6575641
-0.7897484 -0.4763083 1.141543
-0.2109774 -0.1195299 0.9145794
-0.04815968 -0.07794246 0.6169034
-0.3051153 0.0454373 0.6401719
-0.4760386 0.004390541 0.6396894
-0.1155663 -0.02141098 0.7916942
-0.07151821 -0.04286999 0.1999747
0.09067572 -0.02211825 0.9121705
-0.003517461 -0.01860436 0.810196
0.1060663 0.06889495 0.8447682
-0.08972436 -0.04665895 0.2227485
-0.6278428 -0.1808523 0.8152826
-0.2781122 -0.2325296 0.9782991
0.1572382 -0.05285797 0.9699408
-0.63951 -0.4131995 1.166598
-0.1797976 0.04728729 0.7064919
-0.3223365 -0.3743385 1.115661
-0.3463253 -0.2083603 0.7265348
-0.234789 -0.02265338 0.3139222
-0.2271648 -0.007185489 0.7451343
0.1272084 -0.1441782 1.008425
-0.1578311 0.02787326 0.7438129
-0.3940343 -0.001873205 0.554242
-0.1236463 -0.2798214 1.048516
-0.1619488 0.01467667 0.7571334
-0.4573323 0.03214023 0.4634368
-0.6518536 -0.2130814 0.898662
-0.5821487 -0.1387319 0.7504432
-0.3464332 -0.1939421 0.7006953
-0.5375708 0.05837155 0.5171912
-0.422398 -0.009477432 0.6655971
-0.04684908 -0.07869012 0.6668701
-0.2936995 -0.2494254 1.021023
-0.7737314 -0.4727616 1.083989
-0.1742986 0.07259356 0.6351504
-0.1713843 -0.3207923 1.113766
-0.4355595 0.02711665 0.5736766
-0.7525954 -0.4783598 1.094628
-0.6422119 -0.4039302 1.05568
0.1554743 0.06651018 0.8705478
-0.877638 -0.5673118 1.228263
0.3125267 -0.1080228 1.106787
-0.2144242 -0.002339322 0.7895936
-0.5803465 -0.372946 1.048792
-0.2512722 -0.1486685 0.9497862
-0.2209225 0.09883632 0.622515
-0.4753589 -0.1614563 0.8714592
0.1392375 -0.4664751 1.30666
-0.2777157 -0.2709237 0.7177818
-0.0007388738 -0.1589161 0.6652676
-0.1306807 0.02130443 0.743898
-0.2788532 -0.2952372 0.6025252
-0.3209826 -0.336605 0.7929943
-0.349154 -0.4265908 1.166482
-0.1266051 -0.279632 1.038233
0.01273726 0.004074549 0.8237142
-0.3568218 -0.04921213 0.7235821
-0.5875173 -0.3772429 1.060979
-0.008704968 -0.02414059 0.7300081
-0.542468 -0.2810646 0.9752063
-0.3893174 0.01528056 0.4615092
-0.3659319 -0.4124323 1.136901
-0.003095083 -0.02575956 0.7051125
0.2663572 -0.1559412 1.128224
0.05855754 0.09211431 0.7751285
0.02163589 0.03458698 0.7693601
0.09948734 0.06563727 0.8433172
-0.6687942 -0.5320991 1.219225
-0.5800217 -0.1468795 0.7829731
0.1683143 -0.03762317 0.973743
-0.5672448 -0.1063123 0.7094977
0.15349 -0.4638139 1.343967
-0.3364885 -0.1473608 0.8968256
-0.5508282 -0.02232093 0.6421485
0.2770993 -0.2922335 1.269562
-0.03143342 -0.472105 1.171213
-0.05261021 -0.4775043 1.167426
-0.1900431 0.05695042 0.6745297
-0.2666326 -0.2481725 1.044507
-0.3394676 -0.2623739 0.9903153
-0.6541374 -0.2482913 0.8865272
-0.2223085 -0.1786903 0.9637341
-0.08622623 0.0722918 0.7041572
-0.3575367 -0.0669596 0.7588677
0.1816459 0.02736921 0.9083288
-0.916117 -0.5118821 1.063244
-0.007442227 -0.002179773 0.6952711
-0.1558476 -0.06451879 0.9054155
-0.1502475 -0.1842218 1.006998
-0.8805268 -0.5671954 1.225961
-0.3783323 -0.1159046 0.7573037
-0.4058678 -0.4547222 1.175804
-0.4678368 -0.3204877 0.8643365
0.3636992 -0.07249079 1.092612
-0.4416562 -0.3571721 1.094988
-0.03157612 -0.02491511 0.6222693
-0.4110321 -0.2491082 1.009106
-0.01693304 -0.07731667 0.6118152
-0.5680395 0.2105738 1.97042
0.09776967 -0.4780028 1.273789
-0.6946649 -0.3598015 0.9067597
-0.1521876 -0.05005793 0.8563751
-0.205706 -0.3417318 1.103896
-0.1163001 -0.5163515 1.162762
-0.3213115 -0.1848762 0.6556188
-0.3010764 -0.1592839 0.9155675
-0.6950963 -0.3605542 0.8995852
-0.0434088 -0.6084149 1.234944
-0.6427438 -0.2448147 0.8696679
-0.2711605 -0.3118041 1.096158
-0.2394508 0.06534207 0.6473323
-0.3488745 -0.1639867 0.7171472
-0.06969544 -0.03140415 0.7424998
-0.5310253 0.02852635 0.6667401
-0.5601358 -0.3081414 1.017533
-0.372201 -0.07121781 0.7818922
-0.1086373 0.0875825 0.6810048
-0.9072184 -0.5389678 1.113848
-0.2193483 0.01787994 0.6995848
-0.5009362 0.02347237 0.6085999
0.3304438 -0.06667175 1.077269
0.3776706 -0.7266378 1.941331
-0.5375746 0.05836041 0.5171812
0.09693823 0.09408232 0.8077872
0.2315927 -0.001582293 0.8294407
0.1519645 -0.06839811 0.971199
-0.5846938 -0.03414544 0.6918763
-0.5683514 -0.3825842 1.034518
-0.6083865 -0.09857117 0.7484726
-0.1818518 -0.324064 1.071944
-0.9520625 -0.531014 1.101842
-0.05590365 -0.480955 1.172969
-0.6769179 -0.2659735 0.8844484
-0.4856388 0.01318825 0.5668531
0.2341519 0.004762551 0.9420206
0.08122097 0.001203096 0.9020538
-0.5600287 -0.3624237 1.015298
0.03068957 0.001830913 0.7846153
-0.318039 -0.1507861 0.9029324
-0.2116983 -0.1621308 0.4319041
-0.5300351 -0.008437698 0.6020727
-0.4556283 0.031466 0.5987748
-0.3039761 -0.1237437 0.8509283
-0.4053169 -0.3053555 1.048715
-0.3370723 -0.3459475 0.7806273
0.1748816 -0.7743055 1.652748
-0.3270233 -0.3245317 0.7558874
-0.3742752 -0.3070276 1.075346
-0.1978689 -0.1641793 0.9297844
-0.5816342 -0.1282129 0.6988842
0.1782241 -0.7053252 1.715463
-0.2305893 0.09820838 0.5927092
0.1734561 -0.3951218 1.307782
-0.58246 -0.3024936 1.009826
-0.01584086 -0.1059766 0.638081
-0.2244873 -0.5206986 1.180757
0.2287731 0.06709222 0.8613727
-0.3897325 -0.0544516 0.7384773
-0.08280329 -0.102525 0.5607938
-0.4014632 -0.3023278 1.058101
-0.470423 -0.388 1.116356
-0.7358645 -0.3314627 0.6569324
-0.3404185 -0.3023132 0.7258398
0.1748173 0.04076838 0.8921106
-0.5865157 -0.1087209 0.7349765
0.1382795 -0.3853627 1.178562
-0.3328753 -0.06760051 0.6871814
-0.1497084 -0.2658644 1.018069
-0.2311408 -0.2662527 1.040761
-0.03307098 -0.46247 1.145489
0.2819349 -0.173258 1.170897
-0.3569872 -0.2570322 1.032503
0.0705222 -0.04627087 0.9200986
0.163946 -0.149841 1.018094
-0.2711615 -0.05028903 0.7943076
-0.2812413 0.000290387 0.7155549
-0.397841 -0.02181136 0.6104802
-0.3314335 -0.3530444 0.6896949
-0.181077 -0.1059633 0.8392198
0.3236369 0.02721897 0.9818406
0.1616458 0.01144117 0.9084721
-0.2791311 0.0913804 0.5788152
-0.1767769 -0.3111875 1.038535
-0.7713186 0.1107123 1.005603
0.09215846 0.08907305 0.7834638
-0.2576393 -0.1898991 0.9775934
-0.04205718 -0.07774349 0.6557272
-0.3690582 -0.04860027 0.7503402
-0.542442 -0.2577856 0.9960486
-0.447435 -0.3326398 1.060043
-0.2789375 0.05969072 0.6292329
0.1521063 -0.4360364 1.295121
0.2040561 0.03341065 0.8874732
0.005372544 -0.02858323 0.7253323
-0.2563325 -0.04086602 0.7921058
0.5619217 -1.540502 3.182436
-0.3715735 -0.3913193 1.108243
0.8186346 -1.038691 2.537416
0.5587928 -0.7659386 1.969528
0.1763665 -0.2930909 1.132266
0.1103096 -0.09085776 0.9666979
-0.6624612 -0.4597733 1.151124
-0.01550808 -0.1051603 0.6444236
-0.5010504 -0.08687963 0.8016443
-0.6024729 -0.3129382 1.046395
-0.4619396 -0.004262817 0.6588516
-0.04568413 -0.03340418 0.6978054
-0.3343757 -0.3456957 0.779838
-0.008864187 -0.1069288 0.6114568
-0.4216322 -0.3466527 1.100489
-0.1696338 0.1094585 0.6316096
0.2008284 -0.3706093 1.236719
0.1489895 -0.2493249 1.05159
-0.6321 -0.4225118 1.149174
-0.1318198 -0.2453401 1.007689
0.8673276 -1.098198 2.68258
-0.3521668 -0.4384786 1.130847
0.2324288 0.0854435 0.868445
-0.3719912 0.04533484 0.5678042
-0.1387458 -0.1028601 0.9440277
-0.4012271 -0.01888551 0.7088521
0.09069213 -0.02177938 0.9073277
-0.6732323 -0.3417928 0.9908671
-0.5699127 -0.2978784 0.9860891
0.1950037 -0.08823581 0.9859715
-0.4253359 -0.02651368 0.6831241
-0.3985615 -0.1113252 0.747695
0.01610992 0.0428212 0.7617385
-0.1499195 0.05247005 0.7438858
0.5514894 -0.2626702 1.458782
-0.2631986 -0.1548171 0.9851879
-0.3072891 -0.4027706 1.119782
-0.3558611 -0.386543 1.140467
-0.590503 0.07091983 0.5725732
0.3678981 -0.1246728 1.140785
0.2221747 -0.8641203 1.851335
-0.2910931 -0.3779928 1.134238
-0.3485253 -0.005274452 0.7305557
-0.3432173 0.0005474437 0.6761378
-0.4287027 -0.06562065 0.7370101
-0.6086028 -0.1961961 0.838677
-0.3795384 -0.06818864 0.7356222
-0.2931457 -0.03040788 0.3342924
-0.5342206 -0.004797984 0.6430405
0.1083961 0.07277349 0.8140399
-0.3720723 -0.1600172 0.8287085
-0.5837983 -0.3071148 1.013732
-0.08722304 0.07408968 0.7052066
-0.4546752 -0.4713256 1.190637
-0.1612988 -0.1502466 0.9642408
-0.5847793 -0.1968986 0.8127766
-0.2443641 0.03723901 0.6931604
-0.6821727 -0.4001964 0.8976492
-0.4597546 0.01635674 0.6090504
-0.3392348 -0.2921155 0.7152243
-0.2378085 0.09832428 0.6457495
-0.4833906 0.0100998 0.5947908
-0.3109065 -0.03757103 0.7888972
-0.1808904 0.09358742 0.6119057
0.1966107 -0.08821539 0.9920781
-0.2737032 -0.08039413 0.8554443
-0.1255328 -0.2774218 1.030952
-0.005449723 -0.1081447 0.6258509
0.1489325 -0.1567403 1.005537
-0.1363688 -0.1598868 0.9460968
-0.3164707 -0.3390119 0.6686525
-0.08406989 -0.4353361 1.10452
-0.2510555 -0.1841691 1.020658
-0.6614406 -0.1276212 0.7671732
-0.1992003 -0.003099883 0.7999978
-0.7393608 -0.4284773 1.072967
-0.7247196 -0.3743906 0.9384825
-0.004550935 -0.1096126 0.6406872
-0.5791061 -0.1323713 0.7575581
-0.01039717 0.0006207551 0.7147744
-0.8153403 -0.4967431 1.127733
-0.08803885 -0.05250324 0.7239195
-0.06258532 0.04630469 0.709497
-0.02715026 -0.5227296 1.169814
-0.5455374 0.05486883 0.5378179
-0.1748294 -0.05377585 0.8453181
0.118838 0.04343096 0.8780784
-0.5212736 -0.01961158 0.6363239
-0.4004753 0.00584963 0.6482952
-0.3082307 -0.2669187 1.047379
-0.4868437 -0.1716506 0.8480059
-0.8282064 -0.5267506 1.125664
-0.7092086 -0.3961136 1.033415
0.1670061 -0.121678 1.012913
0.6744922 -0.6465987 2.032427
0.1082208 0.03349448 0.8690197
0.2012062 -0.002455183 0.9623753
-0.1936421 -0.1063616 0.9436719
0.1599887 0.04766339 0.8910883
0.3298962 -0.06598496 1.075871
-0.3343681 -0.1540945 0.7064468
-0.7084762 -0.4724309 0.8922929
-0.5760263 -0.06970037 0.6803906
-0.5693954 -0.1372216 0.734412
-0.01856929 -0.08346988 0.6361076
-0.2591464 -0.1673005 0.947234
-0.6051001 -0.2295155 0.8666462
-0.1860542 -0.0282896 0.7991491
-0.04546931 -0.1896578 0.6276587
-0.05186629 0.002261025 0.7117618
-0.7285911 -0.4172497 1.030757
-0.02723665 -0.06348419 0.4865117
0.1301706 0.0374622 0.8800871
-0.4976337 0.04412141 0.6084186
-0.4114002 -0.01573255 0.6995603
-0.3944426 -0.3326693 1.074488
-0.1581895 -0.1578715 0.8846695
-0.620288 -0.1878346 0.8459552
-0.7535526 -0.328012 0.9399127
-0.6990754 -0.4000285 0.8988538
-0.4709902 -0.3591364 1.158889
-0.2149075 -0.3141823 1.069389
-0.2042766 0.08077637 0.6276902
-0.5476634 -0.2001625 0.9202963
0.07679062 0.05715252 0.8088991
-0.1295047 0.01934324 0.7633684
0.1359428 0.1038493 0.8192245
-0.0991089 0.03899436 0.7532905
-0.09282318 0.1071997 0.6578507
-0.3616008 -0.1047464 0.8077431
-0.553381 -0.1704325 0.7832875
0.163829 -0.001398862 0.9332081
-0.3010627 -0.247435 0.6329865
-0.2422073 -0.1821706 0.9933981
-0.03943928 -0.2025779 0.6495361
0.1850337 -0.1700039 1.05433
0.1811374 -0.05217935 0.9690713
-0.7321103 -0.4664219 0.9837872
0.1383647 -0.04177544 0.9502301
-0.06009054 -0.6867975 1.369463
-0.343425 -0.173959 0.725922
-0.5859066 0.05135345 0.5671766
0.2544265 -0.4420038 1.311026
-0.3421291 -0.5520608 1.139359
-0.1853011 0.01811199 0.7352214
-0.3126404 -0.266178 0.6587214
-0.7273211 -0.347089 0.9513811
-0.2866887 -0.09576607 0.8677281
-0.5248715 0.04193434 0.552319
-0.3688759 -0.3538473 0.8218046
-0.300061 -0.1229626 0.8387726
0.2311519 -0.2245419 1.139787
-0.1679602 0.1022162 0.6438391
-0.05986161 0.08433427 0.6900128
0.6316702 -0.7050723 2.009095
-0.5338601 0.04919385 0.5457254
-0.2301478 0.1151437 0.6366829
-0.738085 -0.466421 1.202178
-0.5753382 0.03767042 0.5505953
-0.1876283 -0.09974241 0.9200563
0.1807507 -0.06090297 0.9670685
-0.202392 0.08439735 0.6302758
-0.2963775 0.09874295 0.5986041
-0.4515124 0.001193769 0.605251
-0.1999415 -0.1126003 0.9312904
0.1166774 -0.3478994 1.150267
-0.1199169 0.09808734 0.6876163
-0.5506354 -0.4064812 0.9802489
-0.3482404 -0.1482137 0.8904844
-0.04432145 0.1022793 0.6930927
-0.0762824 0.08403829 0.6891969
-0.3984848 -0.3678396 0.9077359
-0.2531595 0.1048304 0.6098659
-0.2306759 -0.3751233 1.102227
-0.06975316 0.04773071 0.7286218
-0.4528659 -0.0006412244 0.6177872
-0.7386609 -0.422769 1.045751
0.3288035 -0.3008238 1.360419
-0.07140194 -0.09312526 0.5761579
-0.01919959 0.0008553441 0.7149814
-0.7102155 -0.3622089 0.9412773
-0.1520457 -0.5950115 1.193814
0.2077038 0.03416778 0.9001358
0.6028897 -0.7152151 2.002578
-0.6126572 -0.231215 0.8741003
-0.1169352 -0.245152 0.9755951
-0.4283345 -0.3522383 1.085287
-0.5908365 -0.1281849 0.763113
-0.1975196 0.02985808 0.701754
-0.5473441 -0.2101319 0.9111488
-0.08488058 -0.4552612 1.150313
-0.3897981 -0.1398593 0.859195
-0.0725775 -0.03919823 0.6954089
-0.044465 0.10324 0.6945921
0.09206912 0.1123794 0.8292568
-0.1584097 -0.3575632 1.075025
-0.6128376 -0.2317229 0.8767112
-0.7486361 -0.4265049 0.9614797
-0.399566 0.0136603 0.6295934
-0.257023 -0.04073041 0.7952088
-0.08728819 0.07387912 0.703889
-0.2519262 0.02188422 0.7167355
-0.3844016 -0.2922009 1.05133
-0.01185772 0.05347952 0.7411581
-0.2283005 -0.03689672 0.8149553
-0.2191792 -0.2167993 0.5481598
-0.3463043 -0.07140364 0.7291592
0.206694 -0.3033029 1.149287
0.6799293 -0.525714 1.871566
0.2020413 -0.2555774 1.128641
-0.2423536 -0.3477401 1.088529
-0.729121 -0.4593241 1.139016
-0.02028143 0.1218974 0.6992516
-0.5259159 0.04746474 0.5425911
-0.05866824 -0.1234054 0.6459565
0.2257436 -0.3649794 1.240262
-0.6725376 -0.4026459 1.129449
-0.5991548 -0.1933205 0.8131558
-0.6073008 -0.3789737 1.103522
0.0316819 0.112028 0.7343268
-0.7395389 -0.423163 1.046943
0.3503699 -0.1836862 1.210613
0.1537662 -0.05302197 0.9567219
-0.3379495 -0.252775 0.7110635
-0.1698476 -0.2537219 1.051638
-0.7252162 -0.431249 1.063832
0.164941 0.01239539 0.9217268
-0.3702911 0.004490442 0.6857914
-0.3951526 -0.3145123 1.061924
0.290491 -0.2505403 1.239077
-0.3423358 -0.01460692 0.4125314
-0.3476242 -0.2787026 0.6750883
0.3630866 -0.7237695 1.903015
-0.286413 -0.3004747 1.068249
-0.2456914 -0.1460112 0.9303788
-0.04515497 -0.18137 0.59392
-0.1196086 -0.5343532 1.202362
-0.5017487 0.01713984 0.5883979
0.06661911 0.008717882 0.8380285
-0.450545 -0.05685912 0.7260681
-0.6337527 -0.4352213 0.9743198
-0.2997321 -0.08606981 0.8612955
-0.4719677 -0.04401659 0.8319571
0.1547195 0.02301277 0.894495
-0.5096676 0.02345237 0.6207009
0.2783671 -0.07911994 1.052335
-0.3433829 -0.4192407 1.147147
-0.3448363 -0.1494187 0.9052293
0.1479307 -0.4497573 1.305481
0.6089134 -0.5270088 1.820373
0.255549 -0.1815351 1.149467
0.09593846 -0.09579377 0.9374363
-0.5103191 0.03475251 0.5727649
-0.05211429 -0.1840559 0.6484821
-0.2879078 -0.003066194 0.7195136
-0.5035677 -0.05380326 0.6871734
-0.2456784 -0.2311014 1.006028
-0.3445249 -0.2024913 0.7665566
0.2760314 -0.1296335 1.069894
0.2278493 -0.09597874 1.045826
-0.7942551 -0.4779437 0.9782177
-0.7415902 -0.3884002 0.9902478
-0.3368369 -0.3465106 0.8195258
-0.1687072 -0.1285652 0.8653455
-0.1831131 -0.1560842 0.9764174
-0.7572758 -0.4332325 1.070455
0.2102149 -0.4634357 1.323494
-0.2824448 -0.2500307 1.01149
-0.278143 -0.096084 0.8607782
-0.4601687 -0.1290997 0.8186991
-0.2459461 0.09959444 0.5918813
0.1444137 0.009663632 0.9103875
-0.02027231 -0.02565829 0.7382231
-0.2122464 -0.1552331 0.8933001
0.5398476 -0.7810731 2.106671
-0.4425626 -0.7216187 1.501788
-0.02129108 0.1190718 0.6896871
-0.04580756 0.109059 0.7085184
-0.2097821 -0.2203181 1.031415
-0.1884084 -0.155614 0.3852484
0.2168078 -0.02731598 0.9832091
-0.529038 -0.2565161 0.9348847
0.1786779 -0.2331475 1.105214
-0.241613 -0.3988979 1.107909
0.2507345 0.06245334 0.8230119
-0.487653 0.02881847 0.5630136
0.4031708 -0.189797 1.281552
-0.01304075 -0.08218101 0.6421037
-0.3265248 -0.2732607 1.026341
-0.430999 0.03475713 0.5723632
-0.3456403 -0.101385 0.7700718
-0.183846 0.09767379 0.6250936
-0.009908183 -0.002185145 0.6985296
-0.2808373 -0.1355142 0.9202403
-0.1750054 0.07601294 0.6614346
-0.3315607 -0.1485729 0.9039249
0.3236619 0.02593195 0.971414
-0.279627 0.06026084 0.6307847
-0.7447062 -0.4493464 0.9338537
0.03084943 -0.1987023 0.6801113
-0.4101233 -0.2923647 0.8186138
-0.4924659 -0.02557341 0.6662562
-0.6012733 0.03246782 0.6134641
-0.359471 0.002621118 0.6660784
-0.6427616 -0.2453799 0.8703853
0.3288343 -0.06892776 1.077681
-0.4333472 -0.005744555 0.6347941
-0.7044481 -0.3936624 1.026146
-0.288427 -0.05559555 0.8017129
-0.4837295 0.01441907 0.5687504
0.524698 -0.2720788 1.456737
-0.364368 -0.009222462 0.6904218
-0.5356041 0.006048996 0.5929853
-0.779138 -0.4870102 1.174978
0.235568 0.08194304 0.8260519
-0.585659 0.06052734 0.5936176
0.1523153 -0.07828272 0.9617393
0.02070494 0.05512606 0.7585036
-0.4560441 -0.01168189 0.6418157
-0.3865575 0.0635018 0.5637074
-0.3054619 -0.4038398 1.122481
0.1966528 0.01920354 0.8655655
0.1867412 -0.03892526 0.9949897
-0.1608031 0.0672911 0.6783189
-0.3913063 -0.04764143 0.7158196
-0.05042102 0.0799019 0.7061887
-0.1218026 -0.01143844 0.812259
-0.68526 -0.3071922 0.9197024
-0.02596972 -0.104994 0.6636425
-0.01642821 -0.1077077 0.6570718
-0.07272415 -0.04928206 0.5841128
0.06253698 0.07513983 0.7918385
-0.5180585 0.03616299 0.581184
-0.2404652 -0.1366706 0.9232896
-0.1252501 -0.1481615 0.9834681
-0.07761314 -0.6289156 1.251859
-0.6356681 -0.2386764 0.9068678
-0.0913365 0.05314887 0.716863
-0.1697522 -0.1550305 0.9668032
-0.003415584 -0.1088909 0.6367449
-0.7860993 -0.3721516 2.229871
0.2358332 -0.0730285 1.02466
-0.3393647 0.02455801 0.6741834
-0.3495666 -0.3788788 1.112576
-0.08677199 -0.1473219 0.6620208
-0.1547302 0.09230637 0.6578358
-0.581084 -0.1474934 0.789091
-0.004070403 -0.03822269 0.6013783
0.02806263 -0.1153705 0.6348331
-0.4585201 -0.1107134 0.7519651
-0.3101465 -0.2058785 0.9648443
-0.6236123 -0.3842086 1.056923
-0.8004996 -0.5072583 1.08302
-0.1340393 -0.007393439 0.7780057
-0.3299582 -0.3286601 0.7598489
-0.312331 -0.01573356 0.7268412
-0.5866683 -0.1304043 0.7891386
0.2519802 0.02853129 0.8979694
-0.2243923 -0.1683833 0.9916874
-0.4630781 0.001149051 0.6492627
-0.5976745 -0.1172341 0.7357832
-0.2034784 0.0853582 0.6344079
0.1000485 -0.526996 1.335956
0.004907949 -0.491698 1.236873
-0.2494079 -0.4318877 0.8643513
-0.3176457 -0.1560868 0.7491296
-0.3182996 -0.3178673 1.089456
-0.2064258 -0.1603657 0.9777955
-0.1648212 0.01701798 0.756687
-0.2000529 -0.2541112 1.066733
0.2509619 0.08696464 0.8637159
0.5618756 -0.443652 1.707665
-0.7398242 -0.4664036 1.157023
0.2635811 -0.3599463 1.286456
0.401242 -0.1373969 1.214679
-0.2511026 -0.07029118 0.830583
0.2962628 -0.03240751 1.03472
-0.01119043 -0.02904023 0.7070292
-0.6478334 -0.2476805 0.8790665
0.2332653 -0.09641045 1.047461
-0.4435618 -0.004495144 0.6495033
-0.3376928 -0.06798715 0.7644262
0.5535716 -0.5727626 1.846795
-0.434386 0.02978565 0.5128253
-0.3591098 -0.06828471 0.7435114
0.4826897 -0.6719464 1.936678
-0.435998 -0.01682876 0.6604496
-0.2877015 -0.1143701 0.8241135
0.3305162 -0.06728037 1.077662
0.1959399 -0.1499694 1.032004
-0.1824901 -0.3269159 1.079736
-0.4100575 -0.07745595 0.7502981
0.03021811 0.04849841 0.7714652
0.27218 -0.3169537 1.280869
-0.9529507 -0.489193 1.065327
0.1393971 -0.00316665 0.9069123
-0.09112065 0.06445281 0.7048826
-0.2342969 -0.2379235 1.040051
-0.3620866 -0.2881017 0.7004831
-0.2172893 -0.04848009 0.7789435
0.1177242 0.1037926 0.8005247
0.1394249 -0.1381555 0.999035
-0.1626674 0.1250569 0.6045015
-0.5302757 0.03668337 0.6035689
0.1119757 -0.3426834 1.12835
-0.07808182 -0.6386547 1.271656
-0.102393 0.06769191 0.7100816
-0.05892178 -0.1246729 0.6570067
-0.1443742 -0.1496474 0.9683264
-0.5514793 -0.2265126 0.9044089
0.3616762 -0.347086 1.348162
0.1876769 -0.001367976 0.9517576
0.3351683 -0.3750338 1.339032
-0.1853089 -0.1577811 0.9884018
-0.007222713 -0.2292132 0.6717594
0.07011078 -0.5373631 1.304608
-0.1405715 0.04295993 0.7327362
0.2599361 0.07721272 0.8725867
-0.2689106 -0.340829 1.110105
-0.2195468 -0.2164859 1.000689
-0.4490072 0.0007980901 0.4679712
0.352662 -0.09025466 1.076385
0.1093298 0.07348929 0.8170381
0.2740841 -0.2897779 1.257754
-0.4624105 0.08995866 0.4453754
-0.2993359 -0.25448 1.043427
-0.2533449 -0.1500238 0.9550691
0.1491304 -0.03540387 0.9325597
0.3305169 -0.3813737 1.370244
-0.02229269 -0.02491844 0.6934493
0.3491422 -0.1831231 1.204955
-0.5596962 0.0464028 0.5435988
-0.3423833 0.09920553 0.5597544
-0.5697627 -0.004116228 0.6445336
0.07500928 0.1136942 0.7492402
0.1843271 -0.001950297 0.9400407
0.1999149 -0.192365 1.102675
-0.2133861 0.1078877 0.6013019
-0.1643883 -0.1243847 0.8334783
-0.06173801 0.04660891 0.7109076
0.1998554 0.04288467 0.893049
-0.4548759 0.04524343 0.5645704
-0.09278654 0.03755019 0.7293625
-0.2978606 -0.09100473 0.8517392
-0.2097201 -0.1191744 0.9101478
0.2909484 -0.1343108 1.114583
-0.2174745 0.07016879 0.6384854
0.2811646 -0.8207318 1.948431
0.1449222 -0.2070519 1.042386
-0.1060568 -0.040014 0.6970708
-0.1578924 -0.07266329 0.3688319
-0.6173888 -0.1236857 0.7493227
0.2186884 -0.2447418 1.148183
-0.2520121 -0.1497871 0.9214513
-0.1357301 0.02689387 0.6458775
0.3467485 -0.08079347 1.069914
-0.2886353 -0.2702975 0.6321303
-0.5144305 -0.1093472 0.7525933
-0.4738095 0.01300589 0.5975557
-0.3120911 -0.09395906 0.613961
0.09370103 -0.03420375 0.9279094
-0.03671231 0.0696398 0.7283702
-0.914683 -0.5413931 1.121601
0.6934839 -0.8822536 2.215161
0.2418308 0.00475523 0.9469894
-0.3667087 -0.1778513 0.7877921
-0.03322332 -0.1561202 0.6207455
-0.7088757 -0.3956587 1.033068
0.1709167 -0.1869275 1.066326
-0.4874384 0.01571131 0.5736912
-0.3773502 -0.2944812 1.066592
-0.0219622 -0.02493801 0.6944601
-0.7172454 -0.5350975 1.14666
-0.1867111 -0.1275816 0.8052762
-0.04572446 -0.6352829 1.293729
-0.2150987 -0.1537625 0.9577006
-0.5048566 -0.005666091 0.6125438
-0.2973834 -0.09073982 0.8524083
0.3407913 -0.1501971 1.173406
0.204053 -0.0824814 0.9757879
0.1673798 -0.1397884 1.016611
-0.5441143 -0.2024699 0.8752701
-0.4496244 -0.1336194 0.8133809
-0.3407938 -0.191307 0.6848593
-0.234372 -0.02200427 0.7755994
-0.2085185 -0.1183509 0.9116629
-0.06512576 0.07573025 0.6936572
-0.5475201 -0.2035307 0.8804582
0.09309147 -0.03462855 0.9193259
0.573256 -0.4442461 1.671926
-0.5593227 -0.1145913 0.747142
-0.4312259 0.01569339 0.6754916
0.7824598 -0.6318621 2.109409
-0.03427228 -0.01764879 0.6243427
0.0504366 0.08069286 0.7719998
-0.3302124 -0.1475106 0.9002066
-0.1882645 -0.1966689 1.012239
0.4590334 -0.3994288 1.512108
-0.3573997 -0.07214325 0.7614625
-0.03452533 0.08589769 0.7061641
0.1639012 -0.3565916 1.225571
-0.2282539 -0.08672797 0.9012769
-0.716801 -0.4523553 1.161508
-0.2057828 -0.1670908 0.9840466
-0.3222125 -0.3217009 1.1042
0.221239 0.08056654 0.7757423
-0.08094687 0.2383937 1.267465
-0.2245357 0.05325838 0.6660884
-0.6757323 -0.3975641 0.8888676
-0.4803927 0.006431899 0.5985891
-0.4499204 -0.2756335 1.015844
-0.2652108 -0.3026113 1.063584
0.06373093 -0.5467629 1.322864
-0.0876089 0.05145012 0.7295777
-0.02729694 -0.09327409 0.4487577
-0.1675512 -0.4809305 1.179326
-0.3148993 0.09224287 0.5544034
0.1767435 -0.02377999 0.938694
-0.0783432 -0.04385785 0.6995422
0.1096291 -0.06210792 0.9375262
-0.4739565 -0.1153517 0.7818884
