# .PCD v.7 - Point Cloud Data file format
VERSION .7
FIELDS x y z
SIZE 4 4 4
TYPE F F F
COUNT 1 1 1
WIDTH 1500
HEIGHT 1
VIEWPOINT 0 0 0 1 0 0 0
POINTS 1500
DATA ascii
-0.0002579205 0.002071111 0.9427081
-0.03223394 0.00164768 0.944308
-0.0999223 0.0164877 1.07119
0.01302096 -0.06510229 1.031276
-0.05059328 -0.01192744 1.102948
-0.1238401 0.01912754 0.8847865
0.0224508 -0.006961508 1.085012
0.00841051 -0.01573399 0.9396812
-0.04769803 0.02312358 0.8689789
0.0002458671 0.02391969 0.9200174
-0.209577 0.04740169 0.7909338
-0.15505 0.05400213 0.680653
-0.007138696 0.01033672 0.7942406
0.007166035 0.01311148 0.7962965
0.01028778 0.02175822 0.794346
-0.05476042 0.01751062 0.8759825
-0.1055339 0.003219051 1.02994
-0.08158574 0.005538377 0.9152269
0.01276089 -0.1038309 0.9078877
-0.08414067 0.01626022 0.8977458
-0.05209426 0.01109455 0.8845893
-0.04417064 0.001899061 0.9474571
0.04828296 -0.04777587 0.8100162
0.003803958 -0.05134921 0.813257
-0.3401065 -0.2580613 0.8260144
0.3336392 -0.3065547 1.390604
-0.3370606 -0.02388126 1.160551
0.0168274 -0.0396073 0.9584743
-0.07347873 -0.0002368505 0.9019092
-0.04578023 -0.013651 1.119477
-0.08973759 0.002474746 0.8908625
-0.377818 -0.1234993 0.678059
-0.3054722 -0.03991435 0.6290952
-0.08083049 -0.003395251 0.9061192
-0.1073364 0.02609868 0.9434609
-0.4032272 -0.0943928 0.7075213
-0.3912197 -0.04890103 0.6714079
-0.09512612 0.0178061 0.8856289
-0.0925914 0.01876161 0.8809895
-0.3978619 -0.02585969 0.6798325
-0.09478132 -0.0140196 1.082748
0.009830995 -0.1343481 1.333756
-0.3373062 -0.3069576 0.8487415
-0.3382978 -0.4504011 1.368018
0.05160769 -0.03934973 0.824059
0.0263247 -0.03406874 1.144494
-0.3884037 0.02853516 0.6952164
-0.3632227 0.01743387 0.8224841
-0.393664 -0.02352093 0.681087
-0.3878067 -0.04322618 0.6713972
-0.3504966 0.001460166 0.6489812
-0.02362842 0.03251475 0.8713999
-0.2819815 0.02676587 0.7221627
-0.3725674 -0.1379693 0.7990434
-0.1509813 -0.01246655 1.078341
-0.0344314 0.003582223 1.022849
-0.1196752 0.01017458 0.8832577
-0.12139 0.007170194 0.9020776
-0.09583744 -0.00255418 0.9430071
-0.3147563 -0.03852062 0.6213934
-0.01678906 -0.06694913 1.107679
0.06068716 -0.1001291 1.378255
-0.03789878 0.005033657 0.9148988
-0.3766703 -0.08599038 0.6306045
-0.3542365 -0.09328326 0.8589844
0.001654682 -0.05192586 1.104264
0.02778221 -0.1354257 1.303626
-0.3899171 -0.02218218 0.6651478
-0.2666635 -0.6986959 1.692574
-0.07856569 -0.003789917 0.9459056
0.09661584 -0.4377593 1.542683
-0.3147691 -0.3309608 1.16722
-0.127579 -0.4118452 1.673269
0.1430467 -0.2118254 1.383554
0.03323113 -0.1161411 0.9799224
0.003866278 0.02516731 0.9337913
-0.2905297 0.04662948 0.6100063
0.0280805 -0.07307226 1.027783
-0.09428424 0.0006667083 0.8695137
0.004005069 -0.02207696 0.9172691
0.008904723 -0.02686813 0.9564373
0.005761204 -0.06270092 0.9404629
0.03537233 -0.007214904 1.12812
-0.0693339 0.004743103 0.9556893
0.02317417 -0.1366294 0.9131859
0.01120501 -0.07069167 0.9407094
-0.2678175 0.04463346 0.7404846
-0.1736723 -0.07145459 1.113568
0.001973279 -0.04154188 1.125933
0.03813564 -0.1338131 1.307814
0.02354812 -0.03145813 0.8215135
-0.3563361 -0.1149473 0.765597
-0.04271925 -0.09477237 1.259633
0.003974183 -0.008486382 0.9489308
-0.2052015 -0.1008011 1.333465
0.001927046 -0.1029998 1.285622
-0.02084147 -0.08505987 1.158195
-0.06821152 -0.1464024 1.357838
-0.3765553 -0.1454318 0.6754411
0.03612769 -0.1235609 1.271055
-0.06540527 -0.09116823 1.210792
0.09724366 -0.3902408 1.637079
-0.1193992 -0.1015181 1.381927
-0.1233859 0.02452829 1.195032
-0.3611949 0.003867932 0.7940115
0.0668088 -0.4004228 1.653767
-0.2502993 -0.01667747 1.134892
-0.1566231 -0.05534121 1.127736
-0.3592599 -0.02704294 0.8528787
0.01824344 -0.1337853 1.32233
-0.1475116 -0.1068538 1.390343
-0.3468385 -0.01554604 0.9551664
0.03026509 -0.06700749 0.8062965
-0.374688 -0.00425129 0.8676112
0.05221989 -0.01847407 0.7892594
-0.296013 -0.1329223 1.286977
0.05613316 -0.2332369 1.588323
0.06689433 -0.3455657 1.517758
-0.05360674 -0.1244661 1.374213
-0.372949 -0.005639355 0.8674346
-0.3424648 -0.1761241 0.9161653
0.2545989 -0.3421253 1.475153
0.2656276 -0.411388 1.52836
-0.3179044 -0.3326818 1.107335
-0.1161126 -0.3857291 1.642589
-0.2190792 -0.1107493 1.396126
-0.3447946 -0.09218303 0.8321394
0.03613769 0.03476423 0.7624664
-0.1649984 -0.2453959 1.704905
-0.1083203 0.02016009 0.876777
-0.3921981 -0.0213826 0.6729286
-0.004640542 -0.08527885 1.148037
-0.1142928 0.008573149 0.9189762
-0.1229596 0.01486744 0.90418
-0.4008614 -0.01655805 0.6845344
-0.3849529 -0.01699349 0.6611367
-0.3875645 -0.04812097 0.6676771
-0.3878472 -0.01125818 0.8780064
-0.3891371 -0.1780832 0.9068633
-0.371096 -0.1706371 0.8753076
-0.3896145 -0.04271359 0.6743005
-0.05374105 0.005568505 0.9111376
-0.3567225 -0.2688911 0.8568447
-0.0565474 0.004277996 0.9106029
-0.1317478 0.01240207 0.9611486
-0.1180018 0.01843264 0.9423043
0.02179852 -0.05225442 1.1843
-0.3840371 -0.05809921 0.659184
-0.2692935 0.04439726 0.6940019
0.006519002 -0.004230929 0.9592969
-0.1066937 0.002964811 0.9158803
-0.3808658 -0.03887036 0.6636352
-0.37476 -0.1508387 0.6721825
-0.3831422 -0.09249702 0.6372278
0.005759612 -0.06511578 0.8975577
-0.03545945 0.001005747 1.020829
-0.03310382 0.001200419 1.033202
0.02224793 -0.03563954 0.9963323
-0.05327315 0.01446929 0.8726628
-0.3895645 -0.03236419 0.6667657
-0.3109573 0.03588866 0.6274481
-0.2748788 0.02921426 0.7299842
-0.3125586 0.03828102 0.6351708
-0.3603832 0.01135275 0.8800213
-0.346508 -0.3263084 0.8740293
-0.2988445 -0.4539699 1.373079
-0.1048711 -0.003093326 1.007219
-0.1080572 0.01082925 0.8848279
-0.09063207 0.0005787545 1.11957
-0.3422436 -0.1510034 0.9123773
0.008784004 0.004224028 1.119481
0.027166 -0.07600693 1.223093
-0.2993024 -0.3124726 1.111143
0.06892025 -0.3899622 1.392968
0.02633419 -0.1780243 1.606035
-0.3575974 -0.0946512 0.8521643
-0.05250801 -0.09046894 1.189749
-0.1184772 -0.1264684 1.452748
-0.01154224 -0.1719866 1.486082
-0.1238109 -0.1745623 1.449922
-0.02146967 -0.07181001 1.136544
-0.1554559 -0.07470273 1.124467
-0.05976442 -0.08942623 1.233488
0.03280952 -0.1393119 1.40454
-0.3392943 -0.09634987 0.984773
-0.0007201793 -0.08313617 1.305714
-0.07080328 -0.1937558 1.520424
-0.3650986 -0.1680412 0.8750182
-0.4824241 -0.0836245 0.7723436
-0.1100289 0.02759252 0.8752276
-0.2771209 -0.2527341 1.351617
-0.110846 0.01694237 0.895773
-0.03933726 0.0146438 0.921034
-0.3765813 0.0007551738 0.8850756
0.02730468 -0.01259839 1.153466
0.007352996 -0.06354987 0.815942
0.01919038 -0.1153753 0.8198069
-0.01840169 0.008622594 1.067413
-0.3378797 -0.3071241 0.9468436
-0.001042131 -0.05239682 1.088726
-0.1918256 0.03407259 0.828912
-0.1519829 -0.05935336 1.135382
-0.1247657 0.005075156 0.8951209
-0.2259967 0.02025088 0.9457316
-0.2382713 0.00718988 1.077674
-0.08328059 0.004625326 0.9406012
-0.09786493 -0.004546809 0.9279547
-0.3742927 0.01557937 0.8597787
0.02805366 -0.06376899 1.082147
-0.03321071 0.01547685 0.9921487
-0.0009224202 -0.1337671 1.453364
-0.02068359 0.008200792 1.052536
-0.3515168 -0.0168145 1.00594
-0.1334165 0.02080443 0.9062214
-0.2072238 0.04173188 0.8038462
-0.01131193 -0.06277622 1.104437
-0.1302659 0.009167979 0.9299695
-0.1122989 -0.1599674 1.41023
-0.05231415 0.0320763 0.8696467
-0.1170814 0.00743349 0.9506811
-0.1354134 0.02488983 0.8805829
-0.3255003 -0.2345568 0.9656708
-0.02020401 -0.05575816 1.062647
-0.02265246 0.002494633 1.077812
-0.1511067 -0.01579161 1.080038
0.004762224 -0.09275194 1.235031
-0.05322824 -0.1126055 1.407338
-0.05403644 0.0104797 0.9899648
0.02037593 -0.09901772 1.251892
0.02605886 -0.1094849 1.296542
0.02631987 0.007887721 1.096079
-0.1175228 0.0259802 0.8779261
0.01396361 -0.007534293 1.101945
-0.02639393 0.001627386 1.060313
-0.05588508 0.005570048 0.8751671
-0.0779478 -0.006444945 0.8626951
-0.1127346 -0.001749294 0.9831234
0.000916758 -0.02243187 0.9086054
0.01703168 0.009181137 1.094973
-0.02139338 0.03436627 0.8681368
-0.007964258 -0.006830147 1.060639
0.05169084 -0.09863535 1.291619
-0.126894 -0.01262207 1.112993
-0.009103364 -0.08472734 1.181771
-0.001915418 -0.02470819 0.9000535
-0.07261173 0.01524797 0.9104156
-0.3413126 -0.3675433 1.009268
-0.2069263 -0.1648405 1.695493
-0.1408185 -0.06619857 1.22209
0.03306806 -0.003053994 1.145446
0.01697311 -0.03064576 0.7916574
0.01679497 -0.1120916 0.9006552
-0.0690008 0.02113583 0.8548997
0.02919968 -0.07250191 1.128855
-0.02957718 -0.1373908 1.38304
-0.1842015 -0.107441 1.24255
0.02987727 -0.07549811 1.125385
0.03251694 -0.04530082 1.029147
-0.0106616 -0.00344725 1.070752
-0.1096422 0.0004885987 0.9880378
0.009106664 -0.1598814 1.429746
-0.007869066 -0.08568967 1.187687
-0.0965241 0.01651658 0.909645
-0.1314817 -0.04053706 1.105628
-0.3501443 -0.1582273 0.8538496
-0.0964288 0.01152047 0.9248254
-0.1005853 0.01020135 0.97024
0.09874186 -0.4560733 1.578596
-0.04032637 -0.0667458 1.196192
0.02267828 -0.029556 1.131443
-0.06555499 -0.002625399 0.8749444
-0.009794134 -0.0006692067 1.080674
-0.09511776 -0.01642963 1.135338
-0.1087223 0.02624349 0.8772973
-0.1195127 -0.01860353 1.109613
-0.09332348 0.01105577 0.9144178
0.02953566 -0.12223 1.282878
0.002620165 -0.1356924 1.319194
-0.09501448 0.01519413 0.8984782
-0.3326524 -0.3330592 1.135458
-0.04398932 0.009110958 0.912079
0.02352087 -0.05952635 0.9360254
0.006602603 0.005969263 0.9815402
0.001273805 -0.04907123 1.084835
0.01260566 -0.103286 0.9123716
-0.006287089 0.003044659 0.9198186
0.02786748 -0.0465597 1.094525
0.01131718 -0.07990485 0.9196684
0.0281781 -0.07310413 1.160239
-0.02720432 -0.007494765 0.9864237
0.03471391 -0.05787001 1.168335
0.002537083 -0.02582167 0.9120507
-0.04617901 -0.01411464 1.114775
-0.02900855 0.00469954 0.9419498
0.03580889 -0.1274559 1.29639
0.2414587 -0.3837236 1.40418
0.01668599 -0.06428783 1.16238
-0.2111493 -0.0869785 1.123719
0.06491459 -0.1854859 1.447909
0.03120624 -0.1101553 1.328856
0.01747267 0.01431304 1.091757
-0.1050151 -0.1731019 1.48009
0.03537083 -0.3700236 1.534454
-0.3419241 -0.104164 0.9655634
-0.1191623 -0.08477914 1.372196
-0.01464023 -0.03275745 1.087369
0.02056452 -0.09791248 1.314165
0.002613477 -0.1289063 1.285982
-0.007989787 -0.1016126 1.237032
-0.3133544 -0.37697 1.187258
-0.1595549 0.01814447 1.04861
-0.09299313 -0.01879497 1.084346
-0.1661799 -0.240125 1.715933
-0.04911916 -0.4826651 1.638525
-0.342768 -0.2140065 0.8051235
-0.1351666 -0.4189971 1.542339
-0.1652801 -0.2384103 1.716289
-0.159713 0.02844952 0.9166619
-0.2028805 -0.1608335 1.625672
-0.3503892 -0.1585008 0.758812
-0.03476802 0.0240557 0.882269
-0.04472004 0.0207419 0.8557959
0.0004866302 0.01020967 0.7815599
-0.1298977 0.01848153 1.108962
-0.3742281 0.0149232 0.9119752
-0.08309398 -0.003054784 0.9244979
-0.1229768 -0.004816358 0.8634053
-0.1091416 0.001282464 1.018435
-0.1055754 0.01078213 0.8855659
-0.1106862 0.001214517 0.9151173
-0.03118793 -0.0590461 0.8167161
0.001261055 0.0008254962 0.9404075
-0.08829356 0.008152761 1.063448
-0.07385132 -0.001106774 0.912908
0.06868964 -0.09238302 0.911295
-0.3406166 0.01197872 0.8133692
-0.01096273 0.01495121 1.201925
-0.1059667 0.02424885 1.1663
0.006282034 -0.07675012 1.101621
0.04023716 -0.05595041 0.971494
0.01291868 -0.009044481 1.088822
-0.1317352 0.006511138 1.017098
0.0351615 -0.05422407 1.02408
-0.1004597 -0.000167254 0.8820755
-0.1136247 0.008044065 1.040391
0.00809597 -0.061466 0.9236312
0.007477009 -0.02195796 0.9288708
-0.01493 -0.008869589 0.8947469
-0.1140998 -0.01099219 0.8674781
0.0005684505 0.01292071 0.9306539
-0.02167704 -0.006293776 0.8728009
-0.2280108 -0.01253172 1.065443
-0.01340455 -0.04370894 1.09926
-0.1890983 -0.004882947 1.094103
-0.07021139 -0.05394248 1.105145
0.01136607 0.006130334 1.142116
0.03214471 -0.06261802 1.166628
0.04085081 -0.04706974 1.173336
-0.1147896 0.02765914 0.8632447
0.2200793 -0.3883774 1.398267
0.08616581 -0.4536245 1.570564
-0.3429645 -0.3579513 1.117601
-0.3550011 -0.354706 1.126281
-0.379232 -0.165894 0.8845107
-0.3192542 -0.3438168 1.181716
0.03020868 -0.04433976 1.160151
-0.02191583 -0.1076146 1.320192
-0.3143064 -0.02699653 1.20657
0.01775792 -0.0999236 1.266302
-0.1167969 -0.1648865 1.440111
-0.3409232 -0.3938174 1.357045
-0.08415013 -0.07227921 1.233954
-0.1468087 -0.07738585 1.176305
-0.1494496 -0.05776796 1.188423
-0.3333854 -0.1745351 0.9818417
-0.07356025 0.01689662 0.8677648
0.03130367 -0.04689782 1.161679
-0.08489732 -0.06309476 1.338614
-0.3447917 -0.06655167 0.984202
-0.3304751 -0.2299929 0.9669476
-0.3472553 -0.1127482 1.01823
-0.3252124 0.002065731 1.121019
-0.09534357 -6.122368e-05 1.135262
0.02242814 -0.02946469 1.131514
-0.3366837 -0.16855 0.9588444
0.0124452 0.02956172 0.7990161
0.04650825 -0.1063426 1.279584
-0.08726645 -0.09053612 1.356629
0.04316107 -0.1160981 1.268662
0.00675204 -0.06291658 0.9548381
0.2107764 -0.3940389 1.636793
-0.09635694 0.004594626 1.043891
-0.329032 -0.2383506 0.9949563
-0.1094467 -0.1203633 1.392157
-0.3707925 -0.0858468 0.882845
-0.2389913 -0.06210317 1.139627
-0.005546133 -0.1237016 1.384297
-0.05409462 0.02314695 0.8603968
-0.00717905 0.01683515 0.7894922
-0.008919147 -0.09626343 1.273153
-0.05476991 -0.09322631 1.273722
-0.05550038 -0.1036082 1.305804
-0.009847192 -0.1073693 1.278178
-0.001037643 -0.09051671 1.237039
0.002186465 -0.1021128 1.283419
-0.1391689 -0.08217283 1.182576
0.006219278 -0.06989563 1.130261
-0.07226193 -0.05910129 1.087583
-0.01573173 -0.1072123 1.312395
-0.1051245 -0.01514541 1.128768
-0.102614 -0.008072872 1.309515
-0.04952934 0.006870274 0.9028081
-0.09526353 0.01930283 0.888337
-0.0163888 -0.09503862 1.221925
-0.4028402 -0.05742113 0.9469272
-0.1086065 0.02773712 0.8834586
-0.1544415 0.0008308778 1.062415
-0.007863909 0.01280332 0.7902066
-0.08583214 0.002826617 0.9221175
-0.04649375 -0.1007244 1.350509
-0.01155612 -0.09871221 1.261966
0.02080638 -0.09498858 1.185393
-0.03469894 0.00159067 1.027475
-0.2653089 0.02701462 0.947265
0.01059443 -0.05386293 0.8940821
0.06746194 -0.1083727 1.372144
-0.2834079 -0.03836085 1.309505
-0.3413425 -0.06813878 0.9932562
-0.286962 -0.04728078 1.235427
-0.148991 -0.08387916 1.192642
0.007048701 -0.1294203 1.319838
-0.1816604 -0.6450558 1.663319
0.01667717 -0.0737653 0.9195367
-0.07418146 -0.002126921 0.9155325
-0.08312703 0.008944097 0.9498024
-0.03671876 0.0105714 0.9494985
-0.07443235 -0.00566925 0.8519987
-0.04171421 0.002569873 0.9827107
-0.1003148 -0.01737798 1.175609
0.01826991 -0.07664756 0.9527386
0.05133599 -0.08119377 1.283046
-0.00269372 -0.1171066 1.302264
0.006295905 -0.08979595 1.152628
0.03865046 -0.1113489 1.247935
0.01342899 -0.0419662 1.09104
0.02248872 -0.06387132 1.092255
-0.003249385 -0.07003542 1.142682
0.01826843 -0.06842072 1.197751
0.02017713 -0.02696168 0.9568253
-0.07415465 0.02101904 0.9154541
-0.09359442 0.01087634 0.9095501
-0.09035779 0.007030442 0.915185
-0.0775208 0.01953807 0.853866
-0.07781202 0.018475 0.8602259
-0.1140512 0.01749384 0.9264305
-0.1147968 0.008202508 0.8795376
-0.01831669 -0.1130331 1.111396
0.0548164 -0.1501788 1.412853
-0.1345026 -0.002383871 1.028537
0.3651629 -0.3250313 1.444487
-0.3444034 -0.2964014 0.9653276
0.1417507 -0.3345817 1.421983
-0.1142097 -0.1604343 1.524522
0.00902673 0.02057091 0.7892613
-0.05263972 0.03095465 0.8656269
-0.08637401 0.02170843 0.8835283
0.02869931 -0.07000872 1.090078
-0.2211992 -0.08531218 1.086877
0.004132247 -0.005934494 0.9451609
0.009717022 -0.0240245 0.9555962
-0.02032127 -0.08417962 1.159931
-0.1329771 0.004700182 1.097261
0.05732984 -0.009505565 1.242178
-0.1858521 0.04303182 0.812045
0.07114102 -0.1102865 0.91728
0.08705914 -0.1085107 0.9519742
-0.226783 -0.1118452 1.45356
-0.3378718 -0.3772914 1.30317
0.08177239 -0.113544 0.9395163
-0.100168 -0.1484973 1.418287
-0.3287666 -0.4587027 1.372338
0.124343 -0.1150623 1.64007
0.03199574 -0.07819758 1.137798
-0.09859678 0.0152331 0.9420087
-0.1028079 0.001469418 0.9191565
0.009318771 -0.1090534 0.811718
-0.07453804 -0.001894531 0.9119206
-0.147396 -0.1200134 1.416844
-0.07358921 0.00719049 0.8860047
-0.05644753 -0.001042124 1.050767
-0.1010617 -0.01006199 1.151909
-0.385435 -0.09363774 0.9023292
-0.09141859 0.0007120718 0.9781212
-0.0784063 0.01630526 1.150551
-0.09848005 -0.01043304 1.133464
0.04924412 -0.06986851 1.266945
-0.06864679 -0.07564232 1.362828
-0.07073353 0.007177982 0.917524
-0.0723898 0.01551375 0.8792772
0.01199432 -0.07777493 0.7717924
-0.03962057 0.009068898 0.9101539
-0.06512519 0.004475692 0.8637145
-0.1221133 -0.06647307 1.387289
-0.1333232 0.02316592 0.9160764
-0.1662932 -0.4933176 1.289457
0.01656185 -0.05176435 1.083115
0.02843294 -0.1213753 1.237463
-0.2069039 -0.1640104 1.674257
-0.1194805 0.03273069 0.9179738
-0.0536434 0.0236136 0.8626546
-0.1017669 0.02027225 0.8851941
-0.2312406 -0.08698625 1.135281
0.01409223 -0.02367466 0.9717951
-0.03733454 0.03883761 1.779938
-0.1096062 0.02276538 0.8612564
-0.1382465 -0.0270788 1.186095
-0.143399 -0.1038389 1.454062
-0.09306931 0.006046153 0.9482923
0.01516533 -0.01508354 1.108039
0.01130923 -0.014113 0.9312953
0.04127669 -0.02395704 1.020816
-0.006117682 0.004462156 0.9190801
0.01130395 -0.06631114 0.9833093
0.2774487 -0.3218581 1.403438
-0.3197543 -0.0346184 1.274049
0.02721228 -0.08125589 1.187383
-0.2609729 -0.3309313 1.448794
-0.3577117 -0.03902871 0.8783076
-0.06830326 0.01454923 0.8531092
0.001974716 -0.0526788 0.8705503
-0.1012347 -0.1234526 1.428395
-0.08522595 -0.1528513 1.37726
0.006224822 -0.06736847 0.8077495
-0.04696316 -0.140873 1.309154
-0.3839346 -0.02726912 0.9255521
-0.07275717 -0.01190352 0.9535289
-0.08328142 -0.06077714 1.210339
0.02371928 -0.1162971 0.9214786
0.2474029 -0.3035574 1.336947
0.02474614 -0.116077 0.9244722
-0.1055161 0.01093798 0.8917118
-0.00503282 -0.04042811 1.009991
-0.4063192 0.001163415 0.9277866
-0.03738827 -0.0183113 1.105405
0.01141448 -0.05086881 1.141032
0.03147684 -0.06857652 1.137459
-0.001495095 0.009683648 0.7779162
0.3698 -0.3764839 1.437907
-0.0658637 0.003727211 0.8600298
-0.1805819 -0.1052722 1.363609
-0.288806 -0.02937029 1.245839
-0.05256702 0.03232585 0.8702751
0.008139754 -0.07811413 0.8164819
-0.1203156 -0.08470765 1.425448
-0.0315575 -0.05819393 1.234664
-0.1317701 -0.001956231 1.308365
0.007422693 -0.1077096 0.8014127
-0.13282 -0.0407266 1.104823
0.3013441 -0.4372064 1.556949
-0.1221932 -0.01672045 1.190306
0.0327607 -0.03171636 1.140816
-0.05397578 -0.09314287 1.286159
0.01905948 -0.03033113 0.9625741
0.02428068 -0.1162499 0.9273347
-0.110842 0.007902106 0.9578162
-0.1628939 -0.09337132 1.283081
-0.1213038 0.02148762 1.020146
0.1428964 0.02571898 1.590398
0.01305181 -0.1095911 1.36407
-0.08202995 -0.1550191 1.450922
-0.1432771 0.03329035 1.143626
0.0483018 -0.3590449 1.482713
-0.1194034 0.02428656 0.8573138
0.04457165 -0.2015239 1.529321
-0.1512021 -0.08034061 1.173613
-0.08056822 -0.1570782 1.425671
0.05365944 -0.07208653 1.272831
0.004671091 -0.1778518 1.477472
0.1228729 -0.1318681 1.676952
-0.00437424 0.01064941 0.7929628
-0.2200098 -0.1090688 1.424574
-0.3513038 -0.1125484 1.013233
0.005317137 -0.03366593 0.7708467
-0.02161232 -0.0762724 1.159299
-0.1560915 -0.07875817 1.234236
-0.0104831 -0.01740847 0.9947383
-0.333567 -0.4575504 1.367061
0.003995168 -0.1557707 1.398293
-0.3737623 -0.01679123 1.033917
-0.3654509 -0.3773423 1.164828
0.01328468 -0.1353561 1.316085
-0.06327201 -0.04336154 1.117297
0.02837679 -0.1142852 0.9644492
0.03059416 -0.06834859 0.7982671
-0.04210937 -0.08322361 1.180201
-0.3420602 -0.1088688 1.003462
-0.3622926 -0.05554464 0.9847719
0.08031771 -0.419819 1.482915
-0.3069305 -0.1779121 1.075433
-0.2514632 -0.4375303 1.513349
0.3097316 -0.5922976 1.559217
0.2591606 -0.5283867 1.434165
-0.2949412 -0.3465131 1.268486
-0.1185664 -0.2012983 1.608494
0.08501691 -0.1016073 0.8809488
0.003297748 -0.1168184 0.8048699
0.03569558 -0.1239388 0.8298922
0.01353547 -0.07033236 0.8191209
0.003876017 -0.06841177 0.7516752
0.005626724 -0.07528134 0.8429993
0.005456006 -0.07051364 0.805021
0.01617358 -0.08209513 0.8085354
0.01124675 -0.07782698 0.8252567
-0.008724206 -0.07605079 0.777688
0.01261772 -0.1112818 0.8330684
0.04099866 -0.08186337 0.8313521
0.05365103 -0.08369274 0.8574905
0.002070196 -0.05756695 0.8063415
0.03959096 -0.08187225 0.8290384
0.03922411 -0.07017064 0.8144299
0.03268428 -0.1055812 1.460936
-0.0002678023 -0.05836622 0.80043
0.05999848 -0.08859689 0.8702787
0.03059728 -0.07789289 0.8046337
-0.1923317 0.03992354 0.8529492
0.009274539 -0.07658421 0.8248872
0.01609082 -0.08229829 0.8075122
0.009186671 -0.07816602 0.8193787
-0.007229886 -0.03013839 0.8251497
-0.0004366676 -0.07668357 0.8012004
0.005118758 -0.07067958 0.8037853
0.02927622 -0.06912553 0.8017232
0.008539125 -0.07700356 0.8198258
0.007098631 -0.1087326 0.8184208
0.0417548 -0.1140067 0.8773682
0.007124481 -0.07721695 0.8171198
-0.002522565 -0.07086287 0.7868099
-0.009148889 -0.05072527 1.114021
-0.008978574 -0.06666151 0.8745525
0.001675753 -0.07033926 0.9126127
-0.03717809 0.01070937 0.9165297
-0.03212301 0.007801958 0.9738982
-0.04467463 0.02311162 0.8635297
0.0121174 -0.1697304 1.419775
-0.05966177 0.01921144 0.8429189
-0.04307672 0.02028785 0.8899187
0.004964888 -0.0647967 1.167197
-0.01985153 0.01148269 0.8608288
-0.09607099 0.01923388 0.884796
-0.2388418 0.03068583 1.023707
-0.01713971 0.01749843 1.026602
-0.02550404 0.01449336 0.9996852
-0.08905579 0.01931752 0.8877773
-0.1010643 0.00444814 1.014853
-0.1098647 0.003690867 0.940645
-0.05338578 -0.5091392 1.342475
-0.05209715 -0.09035304 1.183925
0.0172592 -0.06779818 1.141638
-0.04718525 -0.1250388 1.36337
-0.03881096 0.008271056 0.9454304
-0.1175268 0.02087905 0.9263681
-0.0912981 0.01538203 0.8693686
0.02669495 -0.08163232 1.206457
-0.1320303 0.0108831 1.05186
-0.01434893 -0.004109135 0.8935761
-0.09149177 0.01614871 0.8702746
0.03193653 -0.06903097 1.096853
0.04691782 -0.06803654 1.263101
0.006341598 -0.09736234 1.187361
-0.1285467 -0.004757153 1.073269
0.03818593 -0.07924743 1.316
-0.05585756 0.01529955 0.8777905
0.06432174 -0.1515316 0.9526834
0.03219613 -0.1407978 0.9292272
-0.143621 -0.02345737 0.981424
-0.1146515 0.00764503 0.9412181
0.02528059 -0.01694227 1.147401
0.02087169 -0.1171181 1.309767
-0.3425148 -0.1031378 0.9795002
-0.3232814 -0.03522821 1.17939
-0.1405008 -0.04004047 1.084306
-0.3360077 -0.05122858 1.115019
-0.0966932 -0.01693034 1.158662
0.002291621 -0.1666687 1.450189
-0.3184541 -0.3851469 1.205171
-0.1413566 -0.06445524 1.315593
0.001189079 -0.08992386 1.156131
0.02286593 -0.1362825 0.9089367
-0.01594345 -0.01999077 1.098953
-0.1069502 -0.2345331 1.674895
-0.2977555 -0.3517037 1.298082
0.2742518 -0.3707815 1.381054
0.009203954 0.02990122 0.7942548
0.006719588 0.02662196 0.7846773
-0.1163475 -0.1190934 1.386645
-0.244627 0.002226513 1.05299
-0.07932904 0.004488796 0.8534711
0.08522685 -0.09002922 0.9256753
0.04815864 -0.1302582 0.9389545
-0.2717693 -0.1098606 1.461452
0.01125496 -0.1056262 0.7664602
0.0875038 -0.4529676 1.55678
-0.04763944 -0.1158692 1.371221
0.002037252 -0.1618571 1.403241
0.3900414 -0.374788 1.423089
0.04179198 -0.1146218 0.8197712
0.1049864 -0.1206018 0.9910575
-0.09776262 0.01873595 0.8886954
-0.05433333 0.01609073 0.9037077
-0.07341189 0.01741205 0.8695155
-0.08166587 0.01125898 0.8894013
-0.07835692 0.02180444 0.8940877
0.01644556 0.003492143 1.070698
-0.06935848 0.00677335 0.8355864
0.02901703 -0.07072696 0.7936727
-0.08041786 0.006063152 0.8570489
-0.08275954 0.0178913 0.8597342
-0.04035252 0.01383334 0.9163535
0.001583222 -0.02959615 0.9140809
0.02453781 -0.1144496 0.9192175
0.02648181 -0.06587382 0.7984818
-0.1142577 0.01469753 0.8998121
-0.002570593 0.005639972 0.9287292
0.008349367 -0.1231152 0.8318657
-0.04322373 0.01018251 0.918779
0.01312859 -0.004369234 0.9488823
-0.06061402 0.0137726 0.8504348
-0.1246276 0.01267642 0.9686761
-0.0176837 0.01420246 0.7876948
0.3597825 -0.3616861 1.365042
0.06692928 -0.1264666 0.9032499
-0.01504094 0.006640114 0.8149246
-0.06073926 0.001720841 0.8867213
-0.08924658 0.005377102 0.9723876
0.2606208 -0.3252668 1.446898
0.3212762 -0.3053549 1.285401
-0.06872773 -0.0002222263 0.8758901
0.006166092 0.002312417 0.9542049
-0.1007733 0.002016008 0.9567251
-0.07518981 0.000990112 0.8729331
-0.06169376 0.002311557 0.8522286
-0.08080096 0.01419353 0.8894703
-0.08315707 0.006555828 0.8649079
-0.08584343 0.007942576 0.8698724
-0.07847399 -0.007654935 0.9084069
-0.09183455 -0.0003241385 1.107325
-0.2467289 0.01922178 1.32243
0.01858875 -0.06906316 1.053892
-0.08882565 0.0007262495 0.9238667
0.00366828 0.004126116 0.9755541
-0.0417073 0.002039919 0.9352916
0.03904685 -0.005198451 1.055311
0.08408772 -0.1277393 0.9033543
-0.08078277 0.003792558 1.03756
-0.1067186 0.03417891 0.8872043
-0.02506724 -0.1256329 1.563993
-0.09126081 0.001735763 0.9871224
0.009163245 -0.1150424 0.8241655
0.03048715 -0.1629603 1.502118
-0.0004495656 -0.07079615 1.109287
-0.0718582 0.01584555 0.8819885
0.3688904 -0.3680909 1.382663
-0.08837814 0.01301942 0.9500896
-0.09834038 0.005804081 0.9899015
0.04327171 -0.06688155 0.791599
-0.003037915 -0.01666578 0.9312865
0.02475152 -0.01978752 1.048785
0.002002049 -0.05032286 0.8583633
0.003668406 -0.02576394 0.9420219
0.2354285 -0.3295058 1.449412
0.02553721 -0.008850418 1.036293
0.01004419 -0.1233288 1.26289
0.02680671 -0.06346934 1.085946
0.02465682 -0.1375308 1.457677
-0.1347933 -0.0004587831 1.040216
0.03412665 -0.07794104 1.145683
0.07913399 -0.1311729 1.109167
-0.07383259 0.01789138 0.8630536
0.001184231 -0.05031976 0.8574024
-0.1730049 -0.08944155 1.176462
0.3585861 -0.3577154 1.344176
0.02116155 0.01707923 1.103025
0.1495206 -0.1910168 1.171188
-0.04862 0.008578771 0.9551883
-0.08100132 -0.00244127 0.9026075
0.3579441 -0.3715088 1.412825
0.4331885 -0.3480361 1.494025
0.3384807 -0.3480853 1.325775
0.01279148 -0.07982475 0.8190043
0.03465435 -0.07795963 1.146368
-0.1038862 0.004854872 1.051592
-0.07588396 -0.0345825 1.013581
-0.06902069 -0.006136036 0.9191722
0.004051697 -0.04840918 0.9333571
-0.002836602 0.0007783032 1.072637
-0.008261061 -0.06116588 0.8632694
0.000291919 -0.1234521 1.383793
-0.1259529 0.01265984 0.9649101
0.013672 -0.07223567 0.8016701
0.0485772 -0.05032355 0.830987
-0.3083813 -0.07598961 1.321986
0.03846916 -0.08706786 1.20271
-0.2000624 -0.07744648 1.160912
-0.1035928 0.02668952 1.017527
-0.0429355 -0.01337685 0.9176378
-0.01056886 0.00147512 1.118645
-0.1079403 0.003982462 0.9349579
-0.008089114 -0.07328901 1.056044
-0.3397461 -0.1525987 0.8334464
-0.04745473 0.03679739 0.8591195
-0.1226285 0.02271288 0.8993076
-0.213233 -0.08627062 1.10937
-0.05109975 -0.1569752 1.42384
-0.1824164 -0.1307572 1.638882
-0.2367116 -0.02184501 1.050794
-0.08486783 -0.009253018 1.253409
-0.095034 -0.01905972 1.148051
-0.1504327 -0.001974147 1.283269
-0.1601313 0.02866948 0.9141802
-0.3627898 -0.09322043 0.8377072
-0.3202683 -0.1209322 1.152882
-0.07222123 0.008419902 0.8881829
-0.3445767 -0.09568677 0.8386369
-0.02362099 -0.08716445 1.316588
-0.05346459 -0.07164847 1.110958
-0.3436202 -0.4001208 1.35623
-0.3393063 -0.3001758 1.0107
-0.07576948 -0.006668856 0.918512
-0.3031767 -0.1300045 1.258591
-0.3281615 -0.03012749 1.162507
-0.3321803 -0.1672525 0.9795911
-0.04449738 0.009198216 0.9185537
-0.3589523 -0.0536529 0.8493974
-0.3417262 -0.1496757 0.8269293
-0.1280578 -0.01317466 1.08998
-0.1548849 -0.0020342 1.032874
0.00759928 -0.005765109 0.9338059
-0.2105495 -0.05375077 1.130082
-0.3426675 -0.2141226 0.8017294
-0.09024489 0.00880123 0.8981793
-0.3328865 -0.4494267 1.357317
-0.3235434 -0.2919923 1.022579
-0.08388613 0.01961634 0.8776757
-0.1005444 -0.003694957 0.90341
-0.003833774 -0.04019433 1.099947
-0.0003431304 0.01649455 1.280175
-0.3486803 -0.3913832 1.164685
-0.09476429 0.009235944 0.9434627
-0.3245171 -0.1169763 1.131035
-0.3213683 -0.1570724 1.60552
-0.08460871 0.01675769 0.9056929
-0.3470016 -0.3998428 1.384534
-0.3354052 -0.3223364 1.137968
-0.1246803 -0.01292517 1.074668
-0.07015266 0.01993984 0.8479751
-0.104301 0.002401688 1.092852
-0.1458302 -0.007684446 1.161102
-0.2727205 -0.287411 1.398682
-0.3321978 -0.1748655 0.9823566
-0.06701335 0.02319057 0.8699435
-0.360711 -0.004352632 0.8074093
-0.0855886 0.002891449 1.13857
-0.09677199 0.001701192 1.02079
0.04560743 -0.09973248 1.438373
-0.001888104 -0.1025398 1.277069
-0.307371 -0.1263605 1.326275
-0.09439069 0.00719203 0.9613091
0.002980422 -0.04817906 0.9266163
-0.02474691 0.006329504 1.101787
-0.2004405 0.02774974 0.9477213
-0.3526063 -0.1519769 0.7661759
-0.3478945 -0.1584446 0.7639155
-0.01687239 -0.07451395 1.370079
-0.3303893 -0.2339693 0.9685532
0.02824854 -0.07563145 1.212509
-0.06349925 -0.07054669 1.188379
-0.0645791 -0.08639935 1.231412
-0.3335027 -0.1655674 0.9714832
-0.09792618 -0.02334932 1.130895
0.0542884 -0.06981193 1.450569
-0.3416875 -0.1524214 0.9126325
-0.2117293 -0.1432221 1.624045
-0.2987916 -0.1345928 1.275989
0.008897096 -0.1298602 1.466535
-0.117202 -0.1428804 1.431124
-0.05209615 0.02387096 0.8620821
-0.09809326 0.01804408 0.8920308
-0.1567606 0.01453424 1.017144
-0.3398177 -0.09773938 0.9905301
-0.1320565 0.02343038 0.9203822
0.09067704 -0.06584559 1.552094
-0.02989439 -0.4123488 1.665343
-0.3464301 -0.2406088 0.9686445
-0.3480027 -0.3120126 1.05572
-0.01845055 0.009180761 1.146597
-0.3138554 -0.002830985 1.168891
-0.1937811 0.01568883 0.8683752
-0.05040105 0.02097447 0.8595499
-0.1110192 -0.02000709 1.207286
-0.3052801 -0.3861372 1.454701
-0.08861189 -0.4847516 1.658247
-0.3571216 -0.2760356 1.172858
0.02619382 -0.03292004 1.144589
-0.2889322 -0.147407 1.383854
-0.3492647 -0.1546408 0.7645367
-0.07222448 0.01471632 0.8762535
-0.3261724 -0.1663374 1.058402
-0.005410644 -0.1781382 1.535866
-0.01131778 0.006113933 0.7717817
-0.3340285 -0.1736502 1.000943
-0.1593221 -0.07105745 1.100035
-0.3789724 -0.2983572 1.242924
-0.1463706 -0.1551057 1.380482
-0.2985713 -0.1224268 1.273562
-0.3416562 -0.1082536 0.9801182
-0.2924018 -0.195894 1.245103
-0.3706078 -0.004054143 0.8364485
-0.2605624 -0.2017749 1.271632
-0.3308766 -0.1218651 1.156759
-0.343719 -0.1780822 0.918279
-0.2205192 -0.0848131 1.141489
-0.2280644 -0.001600183 1.089536
-0.3107046 -0.02392674 1.193295
-0.3388385 -0.2180898 0.8330131
-0.3489979 -0.08666608 0.8273885
-0.1884706 -0.4852787 1.669665
-0.3555254 -0.09415755 0.8381836
-0.1288882 0.01695746 0.8814968
-0.1535918 -0.06715891 1.302235
-0.15853 -0.07044353 1.311092
-0.195157 -0.1368506 1.519901
-0.3501305 -0.09465009 0.8456013
-0.3607677 -0.04861921 0.8574989
-0.2266626 -0.08875463 1.135661
-0.2838604 -0.1446556 1.373139
-0.3565597 -0.0835546 0.8416882
-0.3573271 -0.003503784 0.8053107
-0.3422641 0.01944001 0.790435
-0.07212226 -0.1993281 1.578125
-0.3577915 -0.09647492 0.8389197
-0.3345375 -0.2811824 0.9847314
-0.3983151 -0.3079626 1.290897
-0.3438902 0.01290511 0.8024837
-0.2457211 -0.01132471 1.111789
-0.1355873 0.02650049 0.8932804
-0.3356855 -0.2351053 0.7530994
-0.3271951 -0.06620907 0.8975596
-0.3921227 -0.4280299 1.483771
-0.3262045 -0.1862945 1.116051
-0.3469014 -0.07741392 0.707697
-0.1967284 -0.4268993 1.685134
-0.3434972 -0.08291244 0.7616283
-0.3628727 -0.06851763 0.9156605
-0.3570252 -0.01770827 0.7363349
-0.3896759 -0.3310268 1.021889
-0.3520079 -0.1155184 0.7644888
-0.3554362 -0.01842386 0.7354937
-0.3447683 0.01906959 0.7907324
-0.3387274 -0.1533994 0.822368
-0.3435817 0.01891492 0.7887875
-0.3430352 -0.1698805 0.917798
-0.1677664 -0.1021816 1.229774
-0.08768413 0.02006217 0.8782931
-0.3419102 -0.1770482 1.0074
-0.04017781 0.02429195 0.880308
-0.1977467 -0.07417756 1.128618
-0.1593549 -0.06389971 1.129857
-0.3423849 -0.1935337 1.144705
-0.07293317 -0.4626173 1.643423
-0.3427095 0.01550399 0.789899
-0.3459039 0.01073502 0.8481436
-0.3677152 -0.05262892 0.8433139
-0.3409508 -0.2203629 0.8211003
-0.140558 -0.06807916 1.310046
-0.3136348 -0.1216497 1.112484
-0.1053 -0.2005177 1.590973
-0.2709326 -0.1163134 1.461846
-0.1514079 -0.01538884 1.084051
-0.3495552 -0.03500336 0.8539172
-0.3364964 -0.1043171 0.993761
-0.06446911 0.01019275 0.9510649
-0.3367175 -0.2168108 0.8084338
-0.3474781 0.01282037 0.8243377
-0.3775923 -0.4351955 1.211299
-0.02044189 0.0138484 0.801784
-0.3553442 -0.05332523 0.7530037
-0.1144108 -0.006328913 1.369988
-0.3610145 -0.05549008 0.7772021
-0.3422985 0.0197027 0.7896166
-0.1426396 -0.1473109 1.457916
-0.2317289 -0.0979464 1.166064
-0.2704565 -0.4465801 1.737365
-0.2126849 -0.0899363 1.142626
-0.1717713 -0.07047575 1.136846
-0.2510742 -0.0325259 1.153172
-0.3085965 -0.03598194 1.245811
-0.04727379 0.01232512 0.8739974
-0.2299982 0.006727839 1.076545
-0.2997432 -0.4517359 1.360818
-0.3155838 -0.1795697 1.115584
-0.3568304 -0.05173632 0.8345347
-0.3417602 -0.3057923 1.029985
-0.2414719 0.03402809 0.685949
-0.3062434 -0.08238617 1.276164
-0.3373086 -0.3926674 1.161563
-0.1582781 -0.06902415 1.175016
-0.3344067 -0.1461334 0.904368
-0.1765307 -0.09720778 1.213558
-0.1807035 -0.09546752 1.386158
-0.137811 -0.4214391 1.67699
-0.3546587 -0.3283712 0.9795564
-0.3429938 -0.2143597 0.828438
-0.00911698 -0.04993077 0.9407232
-0.3387749 -0.3417998 1.136282
-0.3595101 -0.08965398 0.8522509
-0.3449821 -0.1733779 0.9138691
-0.3601797 -0.0009832497 0.8064451
-0.1202869 0.03167844 0.8088675
-0.3171816 -0.3972204 1.490039
-0.3429619 -0.2292862 0.8966295
-0.2247043 0.0251537 0.7324376
-0.3686791 -0.3476041 0.9929659
-0.3552399 -0.3366319 0.9763323
-0.3431732 -0.1308759 0.9144265
-0.3257862 -0.3275791 1.226086
-0.3566822 -0.06850039 0.9179406
-0.1104035 -0.2059736 1.586712
-0.3507843 -0.4271144 1.568092
-0.0976429 -0.02098562 1.026906
-0.3250483 -0.1627167 1.05594
-0.04820834 0.02375436 0.8744417
-0.2985696 -0.3785119 1.376204
-0.371784 -0.3812766 1.335132
-0.4101307 -0.3744578 1.041286
-0.3449944 -0.000286363 0.8401359
-0.1324207 -0.1629674 1.457307
-0.2634886 -0.1013615 1.279524
-0.3164367 -0.1896352 1.130247
-0.2976612 -0.2210181 1.374469
-0.368083 -0.3438067 0.9871686
-0.2070103 -0.0877796 1.143746
-0.242606 -0.003405976 1.072592
-0.3414392 -0.2734691 1.194715
-0.3435526 -0.1433664 0.9125048
-0.3010411 -0.2003025 1.192156
-0.3180996 -0.1474318 0.798306
-0.3656904 0.000920979 0.804481
-0.3193173 -0.5744825 1.901264
-0.3612011 -0.09040108 0.8391227
-0.2097538 -0.08787846 0.9953151
-0.3003269 -0.5039679 1.335338
-0.3041542 -0.01344898 1.145926
-0.03057896 0.0105164 0.7784008
-0.333839 -0.1968022 1.183369
-0.03961149 -0.4920585 1.694174
-0.338794 -0.1089876 1.008527
-0.3958867 -0.3951329 1.284348
-0.06348777 0.02325434 0.86328
-0.2448849 -0.02350453 1.119958
-0.06601062 0.008261832 0.7625385
-0.04948999 0.01732117 0.8784968
-0.1450342 0.005506635 0.9204962
-0.1098876 -0.1367022 1.228824
-0.1345275 -0.06204113 1.273533
-0.1082889 -0.0967016 1.29093
-0.1346704 -0.0716909 1.091979
-0.1467851 -0.1471468 1.449755
-0.3164547 -0.1089432 1.119985
-0.1192654 0.01831377 0.9010601
-0.3626149 0.005357468 0.7940619
-0.3543239 -0.08360715 0.8443076
-0.3413702 -0.1025972 0.9876022
-0.2945633 -0.2011206 1.273126
-0.3095702 -0.2789624 1.305449
-0.4184866 -0.3905803 1.353887
-0.1028058 0.0184442 0.7988045
-0.4797481 -0.5339429 1.567321
-0.1409642 0.01969208 0.9049613
-0.4383279 -0.2236894 1.46815
-0.3574796 -0.1564932 0.8331461
-0.3033718 -0.1588401 0.9350289
-0.1585102 -0.1028288 1.201701
-0.3577426 -0.01849766 0.7240905
-0.319457 -0.1248711 1.326245
-0.3455099 3.018395e-06 0.838156
-0.2898468 -0.2001416 1.283426
-0.1693452 -0.09013225 1.222534
-0.3803787 -0.370041 1.082666
-0.4572116 -0.4274926 1.178658
-0.3718992 -0.3477876 0.9980714
-0.06447202 0.010458 0.8851082
-0.319888 -0.1163666 1.101417
-0.3370697 -0.1715181 0.9068432
-0.3413903 -0.3749249 1.011556
-0.3141677 -0.248331 1.098442
-0.3587671 -0.003251179 0.8052493
-0.3332753 -0.1612628 1.068131
-0.3548496 -0.4340143 1.304586
-0.3746392 -0.3717898 1.243892
-0.36402 -0.3481419 0.8914742
-0.4077244 -0.4063667 1.21731
-0.3482116 -0.1253031 0.7620488
-0.2094303 -0.09164282 1.205559
-0.1604965 -0.05663509 1.289081
-0.4091887 -0.4372521 1.106938
-0.3512318 -0.05525744 0.9765403
-0.1908732 -0.09849977 1.27737
-0.1388155 0.01979916 0.9180043
-0.3505115 -0.3587451 1.126881
-0.3377486 -0.3502601 1.216208
-0.07843082 -0.005551846 0.8373573
-0.127624 -0.004540255 0.9573165
-0.4569223 -0.4888075 1.51554
-0.34993 -0.1529342 0.7646255
-0.4324601 -0.4025248 1.155034
-0.4841561 -0.5679263 1.567751
-0.4418059 -0.4231943 1.159057
-0.2259628 -0.09486654 1.138016
-0.373291 -0.2668656 0.7323766
0.01648739 -0.03079048 0.7910596
-0.3515963 -0.2449805 0.7547292
-0.3260234 -0.3193308 1.190624
-0.4539883 -0.4693832 1.508423
-0.2885402 -0.2632582 1.240121
-0.3503511 -0.176565 0.9907457
-0.1819082 0.03722444 0.7830992
-0.3675723 0.01526079 0.8373408
-0.3233335 -0.1396763 1.354922
-0.04252741 0.02862271 0.8665973
-0.3047778 -0.3780572 1.392713
-0.317268 -0.1228958 0.739395
-0.3228434 -0.4481014 1.233183
-0.3946287 -0.3084239 0.8079672
-0.4455901 -0.5307257 1.486821
-0.3540799 -0.4273918 1.277657
-0.1674591 -0.06485389 1.119215
-0.2950605 -0.4521213 1.747918
-0.3390134 0.01604263 0.8156074
-0.3392379 -0.1719017 0.9147144
0.03197563 -0.02950614 0.7850479
-0.1786537 -0.1089395 1.449281
-0.3931242 -0.3709556 1.280228
0.02071629 0.001232766 0.7059664
-0.3348342 -0.5374696 1.740305
-0.3703499 -0.3838509 1.329021
-0.3427458 0.01288858 0.8167678
-0.0582428 -0.004330515 0.889142
-0.0473915 -0.001440166 0.8535266
-0.1647715 0.009711585 0.9725453
0.0005949173 0.01251336 0.7894108
-0.001372146 0.003323128 0.7749767
-0.3381086 -0.07450633 0.6911249
0.02492871 -0.01956093 0.7201784
-0.1817222 -0.1051309 1.272853
-0.1524488 -0.0766392 1.158656
-0.1422938 0.0200281 0.906022
-0.1228213 0.01829643 0.8878264
-0.1085406 0.003015789 0.9117374
-0.05931001 0.01904205 0.9049493
-0.06746638 0.005637973 0.9134337
-0.1370752 0.01203496 0.9471737
-0.1305601 -0.04341934 1.150024
-0.07201194 0.01246448 0.9088873
-0.1454792 -0.01655127 1.15436
8.657805e-05 -0.1314617 0.8784378
-0.008227687 0.01512943 0.8357232
-0.1330108 -0.01660395 1.103779
0.009344882 -0.1083318 0.7981105
-0.02245769 -0.00694131 0.8653388
-0.3763187 -0.1330092 1.223561
-0.3506971 -0.03416365 0.693463
-0.3902251 -0.424105 1.231776
-0.3497565 -0.03544474 0.6878476
-0.3566742 -0.01715163 0.7114279
-0.3526798 0.006264499 0.6979988
-0.3511046 0.009597103 0.692167
-0.2353683 0.03304357 0.6819143
-0.2722326 -0.1188328 0.6561533
-0.347892 -0.07271975 0.6893145
-0.5384929 -0.3893655 0.900138
-0.3501787 -0.07908932 0.6896992
-0.3561734 -0.07874012 0.7112152
-0.3518773 -0.07671548 0.7003875
-0.3525553 -0.07471343 0.6915838
-0.3443564 -0.1359916 0.6845931
-0.3747978 -0.2674434 0.7338328
-0.3543795 -0.2015923 0.6887383
-0.3602696 -0.01828938 0.736091
-0.3668321 -0.01698842 0.7175415
-0.3624554 -0.01843249 0.7366992
-0.3198958 -0.1429031 1.048969
-0.3584124 -0.1823874 1.02349
-0.3519505 -0.1335282 0.7624583
-0.3394118 -0.1704869 0.9124206
-0.04057594 0.02387361 0.866454
-0.1341792 -0.05481498 1.238185
-0.3499402 -0.1592488 0.8344883
-0.1016006 -0.01665188 1.006978
-0.08930504 0.01194095 0.8691205
-0.3619809 -0.3673831 1.2507
-0.1012798 -0.0018327 0.9970065
-0.3507331 -0.03633036 0.6883653
-0.08575465 0.00603488 0.8560898
-0.3494187 -0.06565315 0.6895077
-0.3475012 -0.03384827 0.69124
-0.3752573 -0.3276495 0.7721854
-0.2015516 -0.4329772 1.703255
-0.07180159 0.01246484 0.9072208
-0.1220165 0.002651775 1.059474
-0.3438965 0.01879883 0.7897485
-0.06570637 0.001848701 0.9062523
-0.4332089 -0.1821145 0.8887732
-0.2417063 -0.3301069 1.075516
-0.2657863 -0.7524825 1.698751
-0.3778094 -0.2835057 0.6892699
-0.3943405 -0.4726706 1.092834
-0.3419873 -0.5314707 1.261838
-0.3530609 -0.5575409 1.29022
-0.006243904 0.001395652 0.797473
-0.4301933 -0.4484065 1.439142
-0.3712789 -0.2722746 0.7713259
-0.3701821 -0.2698723 0.7696369
-0.419505 -0.4308101 1.414028
-0.3164638 -0.04429034 1.278315
-0.3584287 -0.3103428 0.7640635
-0.361679 -0.002897952 0.8397461
-0.3849435 -0.5999768 1.349319
-0.1160229 0.00538211 0.9552963
-0.3989778 -0.4841879 1.103185
-0.4153595 -0.4584586 1.538646
-0.3947734 -0.3046857 0.8133319
-0.3986853 -0.4166808 1.365019
-0.2963874 -0.1489883 1.409644
-0.0744354 -0.07701728 1.169067
-0.3184287 -0.03566371 1.165811
-0.1648795 -0.0633854 1.103406
-0.2998599 -0.5751662 1.3515
-0.3245199 -0.2361176 0.7176748
-0.1193131 -0.004822914 0.9376286
-0.09441984 0.002844941 1.040655
-0.4180941 -0.4145613 1.355163
-0.3973441 -0.3073916 0.8129613
-0.3059929 -0.2016797 1.278193
-0.3666236 -0.4304768 1.198536
-0.1092399 0.009881607 0.8526687
-0.3360003 -0.1696263 0.8985234
-0.3317402 -0.1914117 1.067207
-0.3866688 -0.3354132 1.022478
-0.3257287 -0.4879833 1.124384
-0.02912143 -0.1583492 1.015506
-0.1425066 -0.04836355 1.199311
-0.1641242 -0.06515794 1.330881
0.03328253 -0.02902333 0.7875947
0.04145075 0.007339175 0.7832946
-0.3709098 -0.3490929 0.9042051
-0.1487673 0.006475694 0.9272503
-0.3521092 -0.05420245 0.7654143
0.06894067 0.01570195 0.8813929
0.06121119 0.0174735 0.8048975
-0.3328358 -0.390112 1.246473
-0.01491694 -0.005191883 0.8260857
-0.284084 -0.2313859 1.414492
-0.2620341 -0.3291292 1.438487
-0.07719284 -0.1001112 1.499269
-0.1552678 -0.06273233 1.228836
-0.2369808 -0.6814948 1.570832
-0.2564436 -0.03740617 1.15894
-0.249304 -0.6801803 1.571736
0.03596297 0.002499995 0.7865518
0.03805928 0.02875953 0.7922381
0.1288403 -0.07385254 1.439209
0.003824358 -0.1261285 0.8423071
0.09408942 -0.3885218 1.633
0.004501227 -0.1263641 0.8653193
0.05973881 0.01947576 0.8154776
0.01927627 -0.04819105 0.7876713
-0.3970218 -0.3890039 0.9510774
0.06208808 0.01111316 0.8128117
-0.4560584 -0.4078545 0.9835286
-0.2774182 0.025495 0.7185199
-0.4642259 -0.4164006 1.001413
0.06626318 -0.09993982 0.8574246
-0.3535658 -0.301867 0.7233304
-0.3706258 -0.3142297 0.7511523
0.05420831 -0.1379835 0.92989
0.01342831 -0.1095339 0.8374971
0.1147831 -0.1206344 1.64575
0.2044442 -0.1859482 1.619122
-0.03188248 -0.6805298 1.674507
-0.1969247 -0.7440678 1.575703
0.1268277 -0.7108026 1.760296
-0.1859299 -0.6930904 1.670704
0.1898723 -0.1026598 1.477077
0.01500983 -0.0333022 0.7947791
0.07701594 -0.05011034 0.8846991
0.06646655 0.02738658 0.8216518
-0.3360353 -0.5836862 1.22606
0.1253847 0.01225861 1.061525
-0.2654036 -0.6638959 1.422342
-0.3345184 -0.8067905 1.569471
-0.3462173 -0.7795308 1.50936
-0.2804883 -0.770955 1.498478
-0.3677105 -0.3171135 0.7565444
-0.338285 -0.615338 1.238955
-0.289544 -0.7254523 1.478776
-0.3024814 -0.7431671 1.56029
-0.272294 -0.6578188 1.408127
-0.3385909 -0.2447219 0.7121296
-0.3529217 -0.1556412 0.76413
0.1047705 0.04075501 1.162541
0.09447436 0.05321792 1.164078
0.0007675486 -0.1094589 0.8172863
-0.1215207 -0.09392264 1.247455
-0.1541584 -0.5170411 1.725593
0.3332109 -0.6316507 1.61172
0.09612709 -0.1505806 1.034028
0.3277032 -0.3780725 1.651487
0.3690203 -0.4471242 1.644467
0.05252228 -0.1508529 1.513888
0.2219083 0.04403262 1.10236
-0.0763049 0.01194377 0.8312441
0.276747 -0.09181653 1.232171
0.06906709 -0.05392381 0.9205353
0.06269964 -0.387497 1.675435
0.2261808 0.04360259 1.124646
0.3800887 -0.4636633 1.664782
-0.1246063 -0.8178013 1.706455
-0.451669 -0.4863943 0.994494
-0.320637 -0.1427148 0.7927461
0.1346882 0.08630192 0.835922
-0.2006997 -0.8151852 1.583033
-0.3511432 -0.1551599 0.7631617
0.1535162 0.09159987 0.9885899
-0.4435938 -0.4032511 0.9598376
0.07301171 0.02479129 0.9829076
0.1067776 -0.8297868 1.74399
-0.2042379 -0.8110441 1.558662
-0.2990547 -0.7800885 1.51278
-0.3312027 -0.8196051 1.550857
-0.3446141 -0.7834061 1.514296
0.07158839 0.01665234 0.9282507
-0.1550169 -0.07610895 1.250541
-0.2759759 -0.7137492 1.474181
-0.354886 -0.3020733 0.7255759
-0.2743405 -0.7586247 1.475142
0.02100454 -0.1241786 0.9216411
-0.3682734 -0.6087133 1.212587
-0.2815694 -0.7431647 1.445045
0.08037835 0.03698556 0.8770908
-0.5021644 -0.6573892 1.259439
-0.344031 -0.6295112 1.2622
-0.0003851928 -0.7074888 1.737805
0.04659898 -0.06451674 0.7819826
-0.1125901 -0.7645678 1.601476
0.09958673 0.0309889 1.010105
-0.349719 -0.5965434 1.236264
0.01513147 -0.1116344 0.8636509
0.03905465 -0.03763537 0.7911375
0.09278428 -0.1277925 0.9305977
0.0878454 -0.1332489 0.9696475
0.09251636 -0.1392743 1.02391
-0.2945418 -0.4428422 1.729561
0.2787873 -0.3467555 1.523412
0.2659713 -0.003740681 1.112564
0.3810655 -0.4684333 2.04182
0.4216182 -0.5971289 2.153665
-0.2795998 -0.1026877 1.318928
-0.3440769 -0.1978359 0.6934378
-0.2011577 -0.1242324 1.415297
-0.1712173 -0.1977269 1.934331
-0.159656 -0.07085552 1.498916
-0.3404394 -0.1979155 0.6781757
0.2225421 0.01603876 1.456256
-0.34525 -0.07787474 0.7019455
0.3657357 -0.6154162 1.584795
0.3689643 -0.8033357 1.828504
-0.1159154 -0.7779089 1.623296
-0.1174015 0.01481394 0.894917
0.3879281 -0.7488702 1.872125
-0.2008547 -0.847111 1.7872
-0.1767016 -0.8180661 1.663397
0.4131421 -0.4394163 1.872122
-0.3456603 -0.7437521 1.411363
0.139523 -0.8420787 1.777332
-0.4052214 -0.5770932 0.9948451
-0.3875805 -0.7452159 1.434873
-0.3108911 -0.7697033 1.568184
-0.3373311 -0.7377981 1.407533
-0.3542784 -0.7627112 1.474717
-0.361268 -0.6102787 1.156578
-0.3826337 -0.7593154 1.43799
-0.5583325 -0.6924481 1.157403
-0.576175 -0.6367144 1.381349
-0.5454834 -0.6085848 1.158532
-0.3387492 -0.3145238 0.9509285
-0.1161531 0.05128513 0.6010535
-0.3634551 -0.6680411 1.148547
-0.3404908 0.01503807 0.8162028
-0.3490372 -0.591301 1.118225
-0.6049717 -0.7275489 1.230004
-0.7391763 -0.6911077 1.626702
-0.3299126 -0.7891026 1.544454
-0.3665856 -0.5036772 1.09462
-0.3773137 -0.7514949 1.423708
-0.4153402 -0.4217583 1.020894
-0.350102 -0.3548251 0.8811533
-0.1166113 0.05020409 0.6032517
-0.332186 -0.792801 1.486887
-0.346817 -0.2156025 0.8088658
-0.4505239 -0.6140293 1.153669
-0.4324068 -0.6287317 1.115273
-0.4159637 -0.7863672 1.497071
-0.3089309 -0.7365732 1.447214
-0.3399611 -0.8717121 1.641989
-0.415577 -0.7823627 1.48088
-0.3618339 -0.5959019 1.190417
0.2508808 -0.6956707 1.743528
-0.374048 -0.6135286 1.224231
-0.03326589 0.006642944 0.9348032
-0.09516647 -0.009441943 1.079031
0.2638 0.01446101 1.122312
0.0733472 0.01254588 0.8394054
0.395731 -0.8853606 1.962553
-0.1748099 -0.8244903 1.680688
0.2776397 -0.6711378 1.679455
0.004001832 -0.8077492 1.69446
-0.3526182 -0.3030899 0.7564337
0.09522575 -0.138797 0.9677663
-0.3270669 -0.7697517 1.461577
0.07778463 -0.03850015 0.9263591
0.04081119 -0.1089859 1.028815
-0.2960947 -0.3609101 1.47016
0.3008539 -0.1182116 1.159574
0.2772218 0.03186619 1.115387
0.3107631 0.008615901 1.1897
0.3331239 -0.07427894 1.232137
0.4869505 -0.3178142 1.66553
0.07055728 -0.04596232 0.8116938
0.3951012 -0.5471309 2.231798
0.01670572 -0.07844208 0.8085813
0.2690814 0.03007341 1.083362
0.3271814 -0.4849071 1.747764
-0.3706462 -0.3482254 0.8603154
0.5613122 -0.5203731 1.916951
0.473941 -0.4127566 1.619084
0.324722 -0.1412195 1.166144
0.5260191 -0.4193216 1.760905
0.4768659 -0.4158421 1.628432
0.5998569 -0.7911749 1.994935
0.5493054 -0.7165055 1.804
0.2139078 0.03666143 1.043451
0.5694867 -0.4596563 1.921507
0.4234641 -0.7186027 1.808925
0.1047803 -0.434481 1.819362
-0.03645192 -0.8449123 1.76929
0.004839878 -0.6826068 1.670759
0.01397797 -0.7661918 1.836633
-0.2963316 -1.094345 2.118468
-0.02385799 -0.8119931 1.703256
0.006781201 -0.8287582 1.740277
-0.4183485 -0.5545293 1.087038
-0.4716278 -0.6848625 1.197441
-0.3837581 -0.5559887 0.9355128
-0.4292512 -0.5711883 1.002898
-0.3702602 -0.4427668 0.7732537
-0.2785392 -0.2634321 0.6021796
-0.3893524 -0.5768441 0.9777387
-0.3083063 -0.7122602 1.214083
-0.3782872 -0.5751355 1.022663
-0.3693133 -0.4379498 0.772754
-0.5903075 -0.8531802 1.446461
-0.3154773 -0.7157437 1.249068
-0.3228433 -0.5739825 1.076024
-0.3238226 -0.6828635 1.214078
-0.3028641 -0.7275909 1.242567
-0.408113 -0.5691063 0.9716199
-0.4094223 -0.5706534 0.9844435
-0.4384417 -0.6503491 1.139619
-0.4826639 -0.6666628 1.119452
-0.4464559 -0.6493703 1.077678
-0.3549501 -0.4193576 0.7496023
-0.4825056 -0.6550874 1.120671
0.3735931 -0.8052163 1.733553
-0.2968696 -0.6597839 1.171883
-0.4008644 -0.6776314 1.134347
-0.3765566 -0.6351082 1.08512
-0.3052507 -0.7157004 1.232157
-0.4150451 -0.471015 0.8388942
-0.4425002 -0.6480926 1.14248
-0.4073952 -0.5662353 0.9797005
-0.4474646 -0.5673375 1.001764
-0.5254315 -0.6603666 1.114991
0.3721546 0.06321482 1.145978
-0.1097917 -0.01624607 1.145654
-0.4199258 -0.5422776 0.9641963
-0.5169995 -0.7225725 1.267408
-0.3644504 -0.6281371 1.282621
0.36307 -0.8693875 1.841861
0.3646461 -0.9749532 2.017537
0.3889158 -0.848999 1.934606
