# .PCD v.7 - Point Cloud Data file format
VERSION .7
FIELDS x y z
SIZE 4 4 4
TYPE F F F
COUNT 1 1 1
WIDTH 1547
HEIGHT 1
VIEWPOINT 0 0 0 1 0 0 0
POINTS 1547
DATA ascii
0.03275439 0.1378195 0.4108479
-0.1812503 0.2358101 0.5271214
-0.3003474 0.2243844 0.5486513
-0.4970352 0.1872912 0.6769587
-0.3339773 0.2149363 0.5757079
0.1093789 0.1979556 0.599259
0.1191674 0.210916 0.5615826
-0.2373226 0.2513355 0.4683031
-0.2409043 -0.1547144 0.9642783
-0.4061083 0.2147144 0.5693778
0.007558588 -0.03044263 0.495928
-0.2950216 -0.0494934 0.8412521
-0.2350733 0.2459683 0.5004349
0.0698105 -0.01600511 0.5014219
-0.3721333 0.1787345 0.7058654
-0.2792862 0.2475321 0.4841438
0.207201 0.1848985 0.6213014
-0.3100588 0.2179861 0.5353171
-0.3821292 -0.1805239 1.038335
-0.09162854 0.1118229 0.4731257
0.1355557 0.1229208 0.7978056
0.05556213 0.1549411 0.4326275
-0.3259323 0.1803359 0.6884134
0.06854349 0.07111578 0.4020085
-0.005115736 0.1494915 0.3876809
-0.2252377 0.2483558 0.4933816
-0.2446527 0.2326717 0.526655
0.05228902 -0.02912037 0.4797506
0.1492343 0.1689506 0.7221119
0.1813201 -0.07846849 0.7956871
-0.3915897 0.1453145 0.7854468
-0.223589 0.2008366 0.6168243
-0.3588753 0.09394547 0.6853741
0.5487229 -0.04657832 1.324775
0.2050234 -0.02991588 0.7549787
0.01798332 0.06708777 0.4919639
-0.3124085 0.2004234 0.613949
0.4317774 -0.009669785 1.038725
-0.3563435 0.2018944 0.6093225
0.05351299 0.1450986 0.4316216
0.004967892 -0.03884599 0.4957525
0.004073168 0.05363193 0.4947576
-0.07522701 0.248104 0.4651827
-0.1360714 0.25862 0.4778925
-0.02272944 -0.02389286 0.4990586
-0.3182293 -0.02929483 0.5734061
-0.3045312 -0.04357694 0.5437521
0.04667296 0.06606773 0.4730795
0.08689662 0.05918733 0.4123009
0.06220488 0.2266031 0.5011573
-0.1912081 0.2395782 0.5392259
0.06519576 0.1475518 0.4475392
0.1696751 0.1880976 0.6118158
0.1024345 0.1822978 0.6409267
-0.3465188 -0.002287192 0.5496123
0.224201 0.2022601 0.5351725
0.2303 0.1939474 0.5482132
-0.3863098 0.2266184 0.5528496
-0.04915079 0.2372299 0.4986123
0.1817203 0.1800041 0.6339528
-0.3064006 -0.0298776 0.5460014
0.2444234 0.1812961 0.5856792
-0.08230033 0.2345135 0.5124442
0.006934307 -0.0313928 0.491473
0.09575223 0.04550851 0.4407111
0.02063911 0.2329183 0.4912531
0.09589871 0.04562203 0.439672
-0.3117182 0.002257575 0.5722826
-0.1902166 0.2681311 0.456639
-0.03744349 0.2368822 0.4927822
-0.1521513 0.2326787 0.5279164
-0.08682938 0.2431555 0.4695081
0.04900039 0.2319961 0.5061103
0.08169321 0.2168233 0.5402867
0.06746381 0.04643916 0.4264133
0.03130388 0.2289293 0.5003339
-0.01843117 0.08132216 0.4997583
0.2490069 0.188278 0.6045384
0.230884 0.1879495 0.5994349
0.2238141 0.1884408 0.5799826
-0.3153522 0.0241499 0.5588209
-0.3400262 -0.02135323 0.5040934
-0.1463986 0.2269225 0.5185423
0.1961376 0.1792427 0.6318936
0.1971515 0.2005532 0.5448713
0.05911995 0.0253913 0.474106
0.1144223 0.1865946 0.6214987
-0.342416 -0.003528578 0.5452834
-0.2142033 0.2526168 0.44625
-0.08280065 0.2348985 0.5136802
0.09199823 0.2175242 0.5034424
-0.1390422 0.2262599 0.5308941
-0.151963 0.2325284 0.5283927
-0.09232248 0.05256113 0.4552318
-0.1624902 0.2510011 0.4650263
-0.4180628 -0.09529898 0.8205714
0.1441627 0.216622 0.5183597
-0.3609715 -0.1157851 0.8212225
0.07766651 0.04326353 0.9672538
-0.3061033 0.2525477 0.4746366
0.05711135 -0.03471621 0.4792592
-0.06894752 0.1440918 0.412931
0.23659 0.1868565 0.5685586
-0.229799 0.02093792 0.8376213
-0.3165468 -0.002951081 0.5692427
0.2356612 0.1845279 0.5698925
-0.01031244 0.009620416 0.4933731
-0.1817456 0.240881 0.4948223
0.1636423 0.1628337 0.6833174
0.06434606 0.05337898 0.3800715
-0.1560605 0.2453417 0.4701869
0.153751 0.1942627 0.5978552
-0.02134997 0.02024098 0.4974118
-0.18831 0.2350545 0.5047126
-0.2698796 0.2513016 0.4829986
-0.2195089 0.2242871 0.5453851
-0.2883135 -0.03343416 0.5499099
-0.3501132 -0.03683815 0.5037875
0.06031088 0.04942894 0.4788545
-0.1906064 0.2554314 0.4563124
-0.393104 0.06897501 0.7587873
-0.3248065 0.02922271 0.5945116
-0.4849587 -0.0799375 0.7484763
0.007558888 -0.03061235 0.4860712
0.05782198 -0.03478139 0.4746904
-0.2721221 0.2371786 0.5406324
0.1113251 0.207502 0.5626946
0.07650805 0.1867632 0.6236518
-0.3213469 -0.1541855 0.9702225
0.2526841 0.1843397 0.580375
0.2028912 0.1931577 0.5923133
-0.3912238 -0.1165889 0.8021606
-0.3102549 0.1619498 0.7526185
-0.24357 -0.1171091 0.8446839
0.09287953 0.0504105 0.4475287
-0.02814496 0.2322101 0.5120048
0.07468248 0.06397464 0.3836228
0.1290752 0.2128638 0.5373018
0.04619293 0.06464382 0.4726389
-0.06518399 0.2319557 0.474214
-0.08232983 0.03137875 0.5081024
-0.08879212 0.1092702 0.4785172
0.1266562 0.2087195 0.5588983
0.2438089 0.1499179 0.6975542
-0.1944314 -0.1498719 0.9297258
-0.3533206 0.0317933 0.5525014
0.2298393 0.1933658 0.6115415
-0.2269917 0.02068979 0.8314821
0.1129128 0.05510808 0.9259773
-0.4784852 -0.07898142 0.7411703
0.2409175 0.1704969 0.6533446
0.09395944 0.181561 0.6420937
0.1234369 0.1885034 0.584548
-0.1186504 0.1538345 0.4499705
-0.07812784 -0.1333008 0.888687
0.1116975 0.207276 0.5630086
-0.280534 0.02096382 0.8253893
0.1115028 0.2071072 0.5645908
-0.3362553 -0.0241772 0.5415119
0.107952 0.2146244 0.5418819
-0.09210454 0.03823381 0.4235412
0.08020627 0.1301784 0.7774543
-0.2895946 0.177547 0.6986287
0.07410299 0.05690791 0.3810361
-0.07876237 -0.1335255 0.890898
0.06105399 0.07170694 0.4815321
-0.4059726 0.125233 0.7924345
0.1123933 0.1677268 0.6580803
0.1051921 0.1819555 0.6079862
0.09902732 0.1966482 0.5921217
-0.1659391 0.2198584 0.5302407
-0.4366457 -0.1201245 0.8231205
0.002561034 0.2296636 0.513624
0.2154415 0.1782802 0.6169349
0.1725312 0.1920919 0.5907545
0.1737812 0.2011808 0.6425534
-0.3331457 0.0301808 0.6044124
0.1564547 0.1777848 0.5753806
-0.3233257 0.02896925 0.5930917
-0.3109147 -0.04406122 0.5506348
0.1866585 0.2124947 0.5534272
-0.334937 0.07482614 0.5546194
0.07627312 0.05447136 0.3745266
-0.4897927 -0.08054727 0.7535808
-0.2419555 -0.1163336 0.840935
-0.2209934 0.02077934 0.8179739
-0.2318272 0.108662 0.8565724
0.09295836 0.2202582 0.5312927
0.06342036 0.1480313 0.4324949
-0.009025981 0.08524938 0.5079639
0.1883198 0.1829776 0.6429049
-0.2265988 0.02188917 0.8758569
-0.4450963 -0.121483 0.8343585
-0.324971 0.2502643 0.4845611
-0.3220352 -0.03248143 0.5915388
-0.338727 0.2370065 0.5230666
-0.4289178 -0.01019958 0.8081539
-0.3217378 0.02510514 0.5569532
-0.09196071 0.2367182 0.5012177
-0.3679105 0.2394208 0.5095873
0.118656 0.149109 0.7389368
-0.2436512 0.2572746 0.4481814
-0.3421892 -0.03242551 0.5155178
-0.3354518 -0.00775646 0.6293184
-0.2532249 0.2433523 0.4812958
0.2709486 0.1564077 0.6633226
-0.3680981 0.2298847 0.5394348
-0.2584375 0.004636818 0.8597046
0.09521496 -0.05395161 0.9082332
0.1474288 0.197037 0.5826642
-0.373631 0.1891754 0.6183545
0.09930079 0.1249133 0.7932028
0.2579587 0.1804982 0.5778275
0.2038334 0.180266 0.6387539
-0.01655933 -0.03444793 0.4932588
0.07102945 -0.05430138 0.9010703
0.1192094 -0.05080455 0.9575813
0.0651773 0.1479455 0.425883
0.2650284 0.109615 0.7715393
-0.2599362 -0.01387748 0.8699296
0.03163345 0.1365936 0.3847694
0.2013641 -0.03734801 0.7811811
-0.2081663 0.2318374 0.5197674
0.05057849 0.1208011 0.3609808
-0.125163 -0.1325548 0.8049134
0.1467881 0.2005305 0.574413
0.04516127 0.1386921 0.4259121
0.1743771 0.1961627 0.59666
0.1039215 -0.04226658 0.9211926
0.0461139 -0.01707628 0.4749119
0.1529623 0.1923958 0.5490149
0.2589155 0.174819 0.6269923
-0.3216919 0.1255161 0.588785
-0.01044793 0.1478409 0.4029725
-0.3713021 0.1882059 0.6162691
-0.2327668 0.2204513 0.559681
0.2507858 0.1638518 0.6639905
0.08937459 0.039402 0.9449277
0.2564925 0.08234136 0.7852222
-0.3237325 0.2075477 0.5976231
-0.3544643 -0.05792201 0.5266431
0.05703216 -0.03452472 0.4786304
0.1948202 0.2013809 0.5521432
-0.1916551 0.2210105 0.5437122
0.2100596 0.1713213 0.6497014
-0.2617344 -0.007002337 0.8804325
-0.319278 -0.03291033 0.5893432
-0.3541278 -0.1043232 0.8279239
-0.2350651 0.2512028 0.4660304
-0.3119354 -0.1150009 0.8646936
0.1186407 -0.04973684 0.9455541
-0.3645943 0.1899844 0.6521182
0.05891507 0.2131216 0.5612903
-0.01630014 0.1307131 0.3855017
0.2937502 0.1674234 0.6205556
-0.06814267 0.1049822 0.4919204
-0.1782708 0.245771 0.4832658
0.09367181 0.006779083 0.9366637
-0.009633207 0.1331165 0.3868242
0.1892156 0.1605818 0.6842606
-0.4210394 -0.01074455 0.7976202
0.18002 0.1382397 0.7427899
-0.3141523 -0.1161513 0.8697641
-0.2342431 0.2449333 0.4997426
-0.3875544 0.1687893 0.6341088
-0.2138004 0.2120465 0.5856202
-0.4164343 -0.01059216 0.7927426
0.1292062 0.1485135 0.718381
0.1598638 0.1970171 0.5875137
0.09550221 0.04729903 0.440244
0.3257426 0.08267575 0.8618394
0.09881219 0.1855731 0.6265134
-0.1804064 0.254575 0.4625639
-0.04189538 0.2305516 0.4839908
-0.477718 0.1970107 0.6375
0.09235913 0.0379565 0.9429246
0.1043307 0.06051398 0.9300553
0.2600768 0.1774413 0.6337371
-0.0540571 0.1363296 0.4015749
0.2348342 0.1893695 0.5418432
0.09536567 0.04469567 0.4162531
-0.165354 0.2809926 0.6198754
0.19577 0.1438533 0.7314886
-0.1901222 0.2208559 0.5436146
0.1373142 0.1478927 0.7341424
0.1527784 0.09629995 0.8744698
0.1198171 0.2145039 0.5417016
0.1775957 -0.02915392 0.831951
0.01485366 0.1365988 0.3805597
-0.3577811 0.1982448 0.6197898
-0.3502091 0.2172377 0.571298
-0.554111 -0.1008084 0.9011302
-0.2703959 0.004473316 0.8631442
-0.5554485 -0.1009399 0.9026529
-0.4719334 0.2143922 0.5875985
-0.3775568 -0.02443212 0.5440062
0.1466065 0.1937863 0.5823799
0.318088 0.02942242 0.9267108
0.1812289 0.09660252 0.8272417
-0.1385413 0.2023236 0.466927
0.1558453 0.2116835 0.5865884
0.1469436 0.1966956 0.5908121
-0.2512638 0.03044641 0.818552
-0.3062368 0.2383944 0.5131
0.2855332 0.02880536 0.834303
-0.3759627 0.2324924 0.5299041
-0.2876741 0.2220698 0.5570405
-0.2389693 0.2254668 0.5320109
0.1400681 0.06513265 0.9705355
0.06725643 -0.05305974 0.9265915
-0.1827886 0.2480132 0.4852966
0.1247259 0.05468265 0.9857683
-0.2410279 0.2494139 0.4811096
0.2394436 0.1544326 0.6943075
0.09385135 -0.05461262 0.9108028
0.2539432 0.1102151 0.8241313
0.2469175 0.1213268 0.8140097
0.1862808 -0.004205456 0.8505692
-0.3235842 -0.1698015 0.9738882
-0.2083731 0.1632716 0.7965578
-0.3970798 0.0596569 0.8040653
0.4336171 0.03964068 1.031022
-0.2305365 0.08985284 0.845944
-0.2359052 0.03239061 0.7883233
-0.3438299 -0.06345117 0.5495061
-0.2875087 -0.08976429 0.7834494
-0.4778859 -0.07380909 0.7223312
0.1167808 0.198364 0.5906833
0.1119674 0.212189 0.5484119
-0.3519973 0.05495186 0.661092
0.1485758 0.2108306 0.5446997
0.1138035 0.2196271 0.5277762
-0.1381639 0.2354276 0.5259031
-0.4646786 0.09437323 0.6153288
0.1547558 0.1969791 0.6037883
-0.3572494 -0.07005076 0.5372843
-0.3551809 -0.06717576 0.5245681
0.0991911 0.1869902 0.6292706
0.2215312 -0.02026675 0.7654799
-0.2103072 0.2148496 0.5852562
0.2557713 0.1164754 0.795529
0.09895422 0.1264752 0.800249
-0.4433501 -0.08097038 0.7473391
-0.3188169 -0.0030495 0.5645698
0.1181505 0.07337632 0.9150978
0.15068 -0.0005164171 0.9927573
0.2189266 0.1721252 0.6410185
0.09015734 -0.04579664 0.8878324
-0.3393653 -0.06293111 0.5442388
-0.3502013 -0.06638888 0.5197878
-0.04537746 0.1402747 0.4074004
-0.1501425 0.2461677 0.4746397
0.08221554 -0.03144049 0.8896996
0.07266533 0.1674355 0.6827896
0.07562365 0.06298176 0.3802273
0.1724283 0.1284272 0.7840775
0.15451 -0.16992 0.8776021
0.2587161 0.1821195 0.5810768
-0.3546016 0.02765928 0.9205545
0.1535859 0.1714447 0.6653121
0.1284233 0.1938243 0.5973289
-0.2654989 -0.1239053 0.8884779
0.1348594 -0.003286586 0.9628329
-0.3245555 -0.01908648 0.554844
-0.362266 -0.00437897 0.5346249
0.0465803 -0.01731699 0.4747618
-0.3862591 0.2266302 0.55158
-0.4791021 0.197519 0.6397729
0.1642553 0.1769785 0.6425607
-0.02488689 -0.1285608 0.9208446
0.08944672 0.1865741 0.6211824
0.1632763 0.1633131 0.6855078
-0.4860078 -0.09151589 0.8200595
0.220873 0.1869828 0.6041387
0.260678 0.1774058 0.5825346
0.1770612 0.1982918 0.5621024
-0.1900707 0.235638 0.506363
-0.05171403 0.1395112 0.4015918
-0.3266571 0.1907326 0.6433086
0.2440509 0.1515176 0.6973899
-0.1355733 0.248823 0.4679675
0.1941241 0.1860295 0.5959837
0.04543692 0.1297447 0.3948096
0.2564045 0.1731246 0.5879053
0.1759923 -0.02768597 0.8123621
-0.1647565 0.2409757 0.4954913
-0.1840224 0.2315869 0.5338271
-0.3318875 0.1213239 0.5579208
0.2540927 0.1704577 0.5810025
-0.372108 0.08636823 0.5665051
0.08491383 -0.04377103 0.9384517
0.07459592 0.06495514 0.3881458
-0.3293265 0.2597203 0.4648538
0.3164009 0.1539083 0.7095714
-0.4963314 -0.09310806 0.8322845
0.1854787 0.2045515 0.5669261
0.08815809 0.203211 0.5834128
0.09383019 0.1901759 0.6117415
-0.3944199 0.2041036 0.6224877
-0.01751926 -0.003138746 0.4315481
0.1156788 0.1876544 0.6399084
-0.2120168 0.2586212 0.4537449
-0.1882521 0.2342974 0.5042467
0.187982 0.1292621 0.7725707
-0.01049195 -0.005082871 0.4912953
0.1698541 0.1856231 0.628175
0.1416449 0.1235138 0.8630454
0.04317423 -0.06265356 1.119154
0.2144104 0.1882519 0.5569045
0.09625148 0.2022037 0.5832298
0.00802734 0.1057125 0.51545
-0.3525545 0.06762531 0.6847078
-0.08065926 0.1087758 0.4822289
0.08071934 -0.03160611 0.9399368
0.09159277 -0.04731702 0.8958648
-0.04804051 0.1056926 0.4650759
0.2023659 0.184996 0.6031117
0.2216711 0.203362 0.5550035
-0.1330104 -6.504585e-05 0.7059618
0.1474584 0.2127053 0.5706825
-0.3280759 0.157037 0.6974608
0.1162941 0.1248319 0.7996788
0.1581484 0.1736533 0.6381626
0.1567817 0.1582441 0.7005925
0.1043765 0.1751321 0.6544438
0.1376669 0.1522855 0.7255803
0.1204264 0.08425127 1.010806
-0.2015196 0.2249702 0.5326825
0.1674183 0.1602494 0.6913834
0.2462762 0.1767014 0.5603468
0.111814 0.2074422 0.5631965
0.1147435 0.1926368 0.6011682
0.1327216 0.1269187 0.7899154
0.2559561 0.1142272 0.7814361
0.128903 0.193858 0.597194
0.1889604 -0.005792115 0.7991324
0.09039256 -0.04833478 0.9181873
-0.3287258 -0.02836774 0.5058708
0.23115 0.1897736 0.5613936
0.1269498 0.1811702 0.6377355
-0.275841 -0.1154281 0.8693551
0.09578413 -0.03832334 0.9347991
0.3123128 -0.03206094 0.761556
-0.4087889 0.2318556 0.5376128
-0.4063904 0.2179198 0.5786052
0.1316192 -0.1219174 0.8591701
0.139358 0.05253576 0.9916475
-0.3740643 0.1901808 0.6470652
-0.2339902 0.1997965 0.6167415
-0.3079298 -0.05734966 0.8713637
0.1972685 0.0642643 0.9617286
-0.07221107 -0.08817109 0.8399748
-0.3712587 0.1865993 0.6211849
-0.2433123 0.0171671 0.8451663
0.04480685 -0.005133191 0.474279
0.09263469 0.2153898 0.4994123
0.0963159 0.2269308 0.5096335
0.003052475 0.2286912 0.5123155
0.1198901 -0.06479062 0.934234
0.1004808 0.2270808 0.5296546
0.05920967 0.2132974 0.5617406
0.247374 0.1897983 0.5560366
0.2375837 0.1948859 0.542138
0.07675283 0.1976589 0.5946224
0.05156137 0.1172208 0.4522098
0.01629013 0.2262704 0.5071548
0.3347555 0.09600835 0.8437442
0.03515342 0.2311307 0.5176325
0.1573826 0.1995479 0.563946
0.1482145 0.2211256 0.5547567
-0.3580604 0.1237362 0.5778317
-0.01242422 -0.006455148 0.4915006
0.1918911 0.06833967 0.909565
0.000588468 -0.03184248 0.497436
0.1232084 0.1521629 0.7200248
0.1588642 0.1923309 0.5782998
0.07158052 0.0003247435 0.9187371
-0.2734714 -0.02861405 0.5858614
-0.3442625 -0.009715153 0.6703805
-0.3498209 -0.02458213 0.5532265
0.1478884 -0.08369274 0.8583036
0.1303347 0.2112723 0.5322229
0.1161906 0.197403 0.590629
-0.3194239 0.05069785 0.577754
0.01399054 0.1372728 0.382492
0.05445139 -0.02983227 0.4809312
0.1256691 0.2184444 0.5309511
0.08469935 -0.03321544 0.8731905
0.2351325 0.1826293 0.5669453
0.1498459 0.1910236 0.5944198
0.11081 0.2079471 0.5657109
0.1510168 0.1967839 0.5527173
0.1207185 -0.01138759 0.9154022
-0.349769 -0.1019713 0.8201631
0.2562386 0.1773992 0.5810321
-0.1668427 0.2281044 0.4970614
0.08299699 0.2139041 0.5726914
-0.3795423 -0.02938162 0.8644449
0.154134 0.0630046 0.9451823
0.1270101 0.07519857 0.9242745
0.08359998 0.05555593 0.938229
-0.3300408 0.2596296 0.464961
0.2382871 0.1870776 0.578882
0.04113209 0.1304941 0.3736237
0.06602119 0.1518968 0.433376
-0.2789663 0.2385274 0.5098304
0.1010913 0.04314946 0.9293032
0.1726635 -0.1462901 0.8586023
0.1995203 -0.0614994 0.8481617
0.1062674 -0.1460919 0.863442
-0.2302003 0.126777 0.8288645
-0.2010341 0.01678677 0.7802491
-0.2280308 0.01290071 0.8158947
0.05703907 0.120651 0.4253712
0.009404237 0.1328266 0.3619294
0.1312904 0.1787349 0.6681889
0.06767547 0.2067595 0.5667319
0.147456 -0.05706085 0.8985217
0.1401104 0.04848618 0.9625138
-0.3857938 -0.06945741 0.743762
0.1478806 0.192832 0.6062902
0.2672383 0.1115525 0.7794306
0.1978531 0.1878718 0.610629
0.2503572 0.1929507 0.5441663
0.1312004 0.1748201 0.6561251
0.1227772 -0.01525085 0.9873876
-0.07120467 0.2386291 0.4842298
-0.3292411 -0.006685906 0.6235941
-0.03145964 -0.1349484 0.9622442
-0.3821846 -0.06872492 0.7386081
-0.3190778 0.02435597 0.5580646
-0.2139222 0.2274853 0.5330505
0.2241327 0.2025308 0.5361034
-0.1045303 -0.09719806 0.7796639
0.2643454 0.1862544 0.5512898
0.1242849 0.2210938 0.5133855
0.0965223 0.07264637 0.9818197
0.1652862 0.1314983 0.7942523
0.1534457 0.1659559 0.6919892
0.181967 0.1744789 0.6481622
0.1257246 0.2142996 0.5454044
-0.3578713 0.07654995 0.6453837
0.02372656 0.1353148 0.3805831
0.05404232 0.07011736 0.9230918
-0.04933508 0.2195519 0.4633282
0.2334917 0.198548 0.5409694
-0.3512676 0.1833325 0.7090224
-0.2771016 0.1457772 0.9311855
0.1392986 0.173959 0.6576846
0.1562372 0.1678191 0.6712606
-0.2143577 0.2335208 0.5133049
0.246745 0.1890756 0.5537355
0.2278575 0.188438 0.6066676
0.06331112 0.2165256 0.5427946
-0.4441 0.2098798 0.6057847
0.2929257 0.1090505 0.8330792
-0.2494288 0.2486734 0.4578374
-0.2053391 0.2387048 0.5077081
0.1783606 0.0171022 1.103171
0.1660171 0.1458254 0.7396925
0.07518241 0.06371036 0.3843053
0.2173483 0.1696732 0.631094
0.2710129 0.1778433 0.5643026
-0.3478467 0.04438896 0.5402319
-0.004308288 -0.1199978 1.036779
0.2660903 0.1319831 0.6508262
0.1796934 0.1553423 0.6950266
0.1091723 0.1698432 0.6654099
0.2777304 0.01135837 0.7852716
-0.06105314 0.1319211 0.4049758
0.1895281 0.2005978 0.5564455
0.2670374 0.1772409 0.6004291
0.2512946 0.1810436 0.5897241
-0.1277023 0.2437375 0.431728
0.1898083 -0.08746882 0.9392509
0.1968702 0.1864895 0.6154582
0.1244837 0.20311 0.5724053
0.2313918 0.1811327 0.6064195
0.2375634 0.1745056 0.6227739
0.0766885 0.1977695 0.5949435
-0.4061337 0.2199877 0.5768998
0.05229367 0.05754136 0.9222605
-0.0208654 -0.124935 0.8967603
-0.1252125 0.2342899 0.4923238
-0.07715534 0.06764252 0.5757786
0.07063236 0.07051306 0.4058727
-0.4089564 0.2030745 0.8177684
0.1520363 -0.002520991 0.9700181
-0.1964601 0.251019 0.4752344
0.05026957 0.1121721 0.4432501
0.03696847 0.2263132 0.5100409
0.2105397 0.1712227 0.6499707
0.3058771 0.07010498 0.9979056
0.07994877 0.1796154 0.6657196
-0.4011617 0.13245 0.78866
-0.3129066 -0.03418222 0.57833
-0.3098082 0.0241368 0.5484441
0.07496322 0.06460732 0.3867857
-0.2082333 0.2522379 0.4441485
0.2580348 0.03778471 0.8107403
-0.2144974 0.257145 0.4509287
-0.08805218 -0.1097536 0.9344406
0.1877766 0.1922714 0.5592303
0.2616552 0.16989 0.6361956
0.1935485 -0.06727812 0.694393
0.2637646 0.1868375 0.5536695
0.09743904 0.1982836 0.5916027
0.2006476 0.2033899 0.5572478
0.1328338 0.2090309 0.5614254
0.08212128 0.1885813 0.6202613
-0.1010168 0.04017125 0.4304028
0.2166897 0.1666077 0.6702879
-0.4047734 0.003035275 0.5497816
0.08423866 0.209562 0.5714119
-0.196126 0.233368 0.5021008
0.05126809 0.05786064 0.922957
-0.3155345 0.2593804 0.4602691
0.07026515 0.0009148546 0.932507
0.1586438 0.2025708 0.5722656
0.1582963 0.2070383 0.5590285
0.1766285 0.1671436 0.6697534
0.1904205 0.2016447 0.5398682
-0.07423204 0.2467892 0.4632119
-0.3810419 0.198644 0.6573638
-0.147915 0.2289691 0.5210586
0.05080479 0.05786412 0.9248392
0.05404609 0.08058709 0.9347675
-0.1037562 0.2343931 0.5016812
0.1313668 0.1776283 0.6651423
0.2256761 0.03554871 1.030348
0.2612934 0.1836164 0.6294515
0.1019614 0.1515601 0.7368379
0.02248854 -0.01794919 0.4544104
-0.1035764 0.2343558 0.501156
0.2241724 0.1941592 0.5560323
0.126741 0.2086989 0.5588389
-0.01234826 0.1315414 0.3848552
0.09098839 0.06345467 0.9757209
0.09173054 0.1635774 0.6777647
0.1383725 0.129389 0.7892691
0.1289002 0.2101604 0.5557948
0.1900895 0.2014777 0.5583204
0.1119904 0.205952 0.5606528
0.02749822 0.2344682 0.5036584
-0.01760267 -0.004919707 0.4923696
0.2688425 0.1509075 0.6930336
0.1221785 0.2177548 0.5167853
0.08692531 0.05918994 0.411251
-0.04392197 0.1494642 0.4031258
-0.005774141 0.1221567 0.4936153
0.08444707 0.1980897 0.594286
0.2522352 0.177222 0.6441439
0.1688007 0.1871199 0.6100405
0.2650723 0.1744901 0.5921572
-0.2498649 0.2220719 0.5359966
0.01773574 0.2214872 0.5023281
0.03429283 0.06581359 0.4840321
0.04162021 0.08279643 0.4441308
0.0365513 0.2271717 0.5112942
-0.188377 0.2335614 0.4677528
-0.1491353 0.2415489 0.4780542
-0.1413749 0.2308209 0.5018586
0.184457 0.1362117 0.7539725
-0.04619966 0.2391679 0.4681659
0.1263672 0.1767537 0.6324273
0.08691449 0.05707679 0.9433376
0.2162132 -0.01932047 0.7164853
0.1289873 0.2094188 0.5545418
-0.430253 0.1874504 0.806197
-0.1618741 0.2511964 0.4920069
0.07734657 0.1979719 0.5952708
0.05346354 0.1521444 0.447809
0.1732709 0.1940774 0.5917741
0.1929995 0.1969398 0.5239033
-0.0183532 0.06770722 0.5007113
-0.1296267 0.238205 0.4735982
-0.008890369 -0.004086425 0.4904749
0.2429908 0.1827403 0.5400622
0.09211587 0.2041187 0.5794873
0.204123 -0.07850483 0.776943
0.1975611 0.1726591 0.651394
0.2429977 0.05106715 0.8554655
0.1695079 0.1332382 0.76766
-0.437007 0.1427164 0.8086195
0.08752771 0.1080068 0.3748033
-0.3787843 0.1923693 0.6222953
-0.4288239 0.1609534 0.8265669
0.2483495 0.1308059 0.7704251
0.07395399 -0.0652495 0.8944013
0.2000796 -0.02558886 0.7016028
0.2238675 0.1395495 0.7410507
0.1233874 0.1202999 0.8078473
-0.2881926 0.2387231 0.5216364
-0.2523561 0.2390912 0.4664638
-0.1740996 0.2352948 0.5057957
0.09177821 0.1660803 0.6747794
-0.2087736 0.2530371 0.47037
0.1232044 0.2100959 0.5587952
-0.02515201 0.09431967 0.539799
-0.1824029 0.2377361 0.5034512
0.03243167 0.05412571 0.4860308
-0.01880325 0.08097553 0.5021366
0.09297895 0.006991753 0.934597
0.07328577 0.2135549 0.552882
-0.2216111 0.202581 0.6147748
-0.170162 0.2341624 0.501627
0.08409488 0.1757061 0.6347685
0.159922 0.1963929 0.586055
0.1563455 0.1936734 0.5518996
-0.01763888 -0.003157354 0.493242
0.15682 0.1779235 0.6695036
0.13685 -0.05897145 0.9292952
-0.009211069 0.05359546 0.4983985
0.07977114 -0.03214879 0.9239199
0.03808924 0.1155145 0.4312563
0.2637591 0.1605451 0.6842911
0.2433678 0.175145 0.6460155
0.2699116 0.100977 0.7857634
0.1657354 0.1525555 0.7076618
0.2543829 0.1535913 0.6930344
-0.05498868 0.1050415 0.5156471
0.216225 0.1561367 0.690908
0.133146 0.1787369 0.6382326
0.1960434 0.1796752 0.6337013
0.2547361 0.1786374 0.5553523
0.2551171 0.1874329 0.5901814
0.2296223 0.1774814 0.6237352
0.1537376 0.1144853 0.825462
0.2365168 0.1738404 0.6220701
0.1527037 0.1417472 0.7458919
-0.08513631 0.1267031 0.4180187
-0.1923055 0.2231895 0.547269
-0.3509831 0.04306595 0.7179006
0.2503986 0.05127508 0.9720147
-0.2199715 0.22444 0.5457214
-0.3747712 0.1662508 0.7261588
-0.06215626 0.133155 0.4038363
-0.349573 0.1939781 0.6358684
-0.1843599 0.1564995 0.7936215
0.1485816 0.211722 0.5470772
0.2576298 0.1939311 0.5336372
0.2257752 0.1834683 0.5945564
0.07726003 0.05303819 0.3680238
0.08689984 0.05943311 0.4130338
0.09311377 0.219118 0.5293064
0.0841395 0.2062898 0.5675756
0.1643285 0.07544996 0.9382546
0.2815982 0.05757377 0.8719782
-0.216529 0.2196729 0.5611191
-0.2424167 0.2182812 0.5670498
-0.04882338 0.1056528 0.4667744
-0.4198706 0.1719872 0.7455141
-0.3734319 -0.06532493 0.9202486
0.252037 0.02330962 0.7893225
0.04683526 0.03914855 0.478774
-0.01794358 -0.037596 0.4971361
-0.006517521 0.137748 0.3848426
-0.1299846 0.2436991 0.4658123
0.2328346 0.1973704 0.5383962
-0.1421496 0.2283201 0.536191
-0.4151358 0.03127085 0.717324
-0.03445597 0.2235704 0.4867995
0.1465251 0.1948783 0.5787933
-0.2144112 0.2183446 0.5580832
0.145727 0.1970884 0.590323
-0.258891 0.1862504 0.6673086
0.285265 0.1057169 0.7637532
0.1309716 0.1387086 0.7801874
0.01106087 0.1358393 0.3805359
0.1257584 0.0322894 0.990992
-0.08541816 0.107431 0.4792563
0.0678476 0.0637962 0.9573981
0.05802004 0.001478093 0.4761873
0.1221972 0.1724123 0.6646018
-0.3518969 0.1505432 0.8276808
0.2284321 0.1900723 0.6098908
0.2155887 0.1346493 0.7627598
-0.316617 0.1249788 0.5704911
0.002695749 0.138527 0.3855516
0.2398404 0.1877571 0.5600029
0.1022538 0.1640933 0.6882175
0.09184771 0.1859873 0.6557668
-0.125006 0.2311779 0.5222687
0.1527458 0.1424062 0.7504354
-0.4306198 0.2273036 0.559539
0.1140296 0.1518605 0.7209616
0.2167799 0.1890422 0.6008407
-0.09075947 0.04062031 0.4279838
-0.03990087 0.2355739 0.5011289
-0.1320126 0.2574237 0.4583733
0.2590451 0.1564215 0.6868555
0.1840657 0.1738712 0.6494387
0.05118101 0.1214945 0.4196999
-0.0187554 0.0678843 0.5017545
0.02791511 0.1390297 0.3865865
-0.4399976 0.2202234 0.5694132
0.1420472 0.1269081 0.7876238
-0.5141156 0.08776601 0.9728954
0.2232066 0.1374963 0.7451495
0.1654196 0.119342 0.8264821
-0.07266816 0.03064004 0.4936797
-0.04555279 0.2339936 0.4962661
0.004538557 0.06734964 0.4965517
0.1318875 0.2143341 0.5314487
-0.1232767 0.2326042 0.4894289
0.02804831 0.2334614 0.5023168
0.01973801 0.1381989 0.383914
0.2721281 0.1600774 0.6848842
0.1639904 0.1523186 0.7247704
-0.002912384 0.0931301 0.5197172
0.2207004 0.2011358 0.5498353
0.02695078 0.2325364 0.4979551
-0.3388035 0.07604129 0.5583421
-0.1302966 0.007227559 0.6640307
-0.3408438 0.2173395 0.5826303
0.1869159 0.1476281 0.7188647
0.1166357 0.1225806 0.7892019
0.1423141 0.1232773 0.7997768
-0.1573248 0.2516377 0.478473
0.2220279 0.1674654 0.6582981
0.09512559 0.1893394 0.655929
0.2400023 0.1799499 0.6362081
0.1392392 0.1737548 0.6572758
-0.3052415 0.242947 0.4576842
-0.3419706 0.2486245 0.4951414
0.07269973 0.1678917 0.6831225
0.260604 0.1802647 0.6232325
-0.3310663 0.1205435 0.5569872
-0.3251778 -0.003884092 0.5603076
0.09602445 0.04559517 0.4388263
0.2383993 0.09663595 0.8781798
-0.01750088 -0.03370215 0.4944971
0.2415258 0.01947265 0.7277995
0.1233343 0.1945928 0.5966423
-0.3319277 -0.00947275 0.6547387
0.1827018 0.1707137 0.6592205
0.1540916 0.2083976 0.5462168
-0.4569216 0.1934245 0.6529189
-0.3609737 0.01556154 0.6725994
-0.1852358 0.2442473 0.4608726
-0.08677805 0.2311208 0.5102276
0.05442204 0.1428321 0.4289151
0.0184515 0.1402921 0.3869449
-0.1706058 0.2520761 0.4647788
0.01145152 0.2166608 0.4499975
0.2161812 0.208219 0.5559453
0.2135685 0.1985196 0.5572355
0.1928925 0.1993657 0.5579054
-0.1343657 0.04957175 0.6839876
0.1908568 0.1601365 0.7022742
0.08453336 0.2060435 0.5579595
0.1492918 0.1904805 0.6083617
-0.07613662 0.2228685 0.4604211
-0.05402099 0.05641571 0.5244231
-0.4087604 0.2123013 0.5908902
-0.4061972 0.210627 0.587886
-0.1989327 0.2655648 0.4433513
0.1735972 -0.06840307 0.7094527
0.1226569 0.1207164 0.8081024
-0.2440505 0.2308719 0.5366112
0.2317017 0.1830485 0.6026964
-0.2917534 -0.007607865 0.4710839
-0.03470443 0.2419004 0.4806068
-0.175896 0.2508591 0.459396
-0.02776814 0.1322355 0.3980716
0.08071374 0.1744537 0.7087723
0.08142523 0.1281777 0.7695326
-0.1795713 0.2307563 0.5219972
-0.2635204 0.2441552 0.5074053
-0.160546 0.2441154 0.4779537
-0.3652584 0.1214807 0.6610333
-0.05182171 0.2486165 0.466628
0.1320802 0.2189011 0.5399766
-0.01809635 0.009948168 0.4944122
0.2814388 0.1341337 0.7495978
-0.168365 0.2370975 0.5369188
-0.06389453 0.05706899 0.5454041
0.05700786 -0.03439432 0.4794866
0.2602005 0.1853247 0.571156
0.06324022 0.03973338 0.4772024
-0.292212 0.2477101 0.487011
0.08494529 0.2088669 0.487941
-0.08509704 0.2365271 0.4321247
-0.1031601 0.2430294 0.4763348
0.1674064 0.2106311 0.5264742
0.2507128 0.1883798 0.5379285
0.253578 0.186199 0.5451844
0.2139117 0.1902744 0.5682819
0.01110206 0.2173965 0.4509743
0.1871393 0.1975273 0.5870793
0.06181973 0.03747186 0.4752852
0.2116841 0.1751395 0.6422663
0.01279786 -0.03681651 0.4807805
0.182887 0.1990244 0.5279347
-0.3519059 0.2031256 0.6183006
-0.2760799 0.2126752 0.5823854
0.2394634 0.1814257 0.6332346
0.06347708 0.008731876 1.068482
0.2660277 0.1317818 0.7057073
0.1334352 0.2014668 0.5815551
0.2088408 0.1721011 0.6567672
0.05289288 0.2292892 0.5108636
0.2256135 0.1797149 0.6280259
0.07399698 0.1652465 0.6941415
0.001165727 0.2318149 0.5188629
0.1024598 0.1628952 0.6847838
-0.06792107 0.02946384 0.4825067
0.09158832 0.04543669 0.9365624
0.0575792 -0.03447126 0.4763481
-0.1879716 0.244228 0.4883679
-0.234185 0.2466336 0.4812671
0.253893 0.1181915 0.7799537
0.08635871 0.2010259 0.5558488
-0.3621728 0.1203091 0.6678847
0.0709362 0.008134393 0.502763
0.06081705 -0.03291827 0.4537528
-0.2095096 0.2315389 0.4906322
-0.02717078 0.2369602 0.4793259
0.02682503 -0.03715933 0.4892634
0.04653573 -0.003707693 0.4744081
0.1947322 0.2048657 0.5381593
-0.06066069 0.2357489 0.4903355
0.2431655 0.1604993 0.7138397
0.1923031 0.1176692 0.8000625
0.2234713 0.1923511 0.5527357
-0.3394494 -0.01093956 0.9420762
0.2191564 0.1986005 0.5710091
-0.08191133 0.2548422 0.4717597
0.09446684 0.004980849 0.9273583
-0.2327918 0.2213278 0.5604573
0.1219557 0.2171625 0.5157962
-0.317149 0.01048945 0.5554569
-0.0408939 0.214327 0.4606025
-0.03449231 0.240556 0.479212
-0.01521386 0.09027535 0.5253983
0.02485132 0.1038923 0.5280579
0.01911869 0.05388785 0.490229
0.1213154 0.2115759 0.56348
-0.1683204 0.2648439 0.4441095
0.03778759 0.2242491 0.5072809
-0.1695405 0.265771 0.4455037
-0.005029069 -0.02728306 0.5328627
0.01234434 0.2151066 0.447171
-0.008105277 -0.003697988 0.4901225
-0.1738459 0.2569669 0.4428356
-0.2792219 0.24828 0.4845046
-0.01421323 0.08500496 0.5058565
-0.3584771 0.2398944 0.4667467
-0.179987 0.2557664 0.4646978
-0.3303229 0.2583868 0.4646076
-0.3323588 0.237849 0.4909041
-0.07069339 0.2422821 0.4886304
-0.2063663 0.2619372 0.44368
-0.003416047 0.08602674 0.4953356
0.05789224 -0.03182526 0.4855517
0.1867249 -0.005274069 0.7817668
0.1391883 0.03708391 0.9699544
0.09265032 0.06068258 0.942812
0.06263298 0.07046735 1.024763
-0.5208494 0.112626 0.6252345
0.2484139 0.1173354 0.8021384
0.1763729 0.0819014 0.9131677
0.283724 0.1194096 0.8112332
0.1940853 0.05276961 0.9260438
0.1226472 0.1565388 0.7472636
-0.3476101 0.2009704 0.614115
0.1766256 -0.02766046 0.8215558
0.2308614 0.1209475 0.7900272
0.1050468 0.0607604 0.9454046
0.2499113 0.1800075 0.6372293
0.1179184 0.1585262 0.6957706
-0.3931558 0.1745844 0.6991329
-0.2243577 0.2087435 0.5990979
0.2542019 0.1872083 0.6567068
0.2271995 0.1139734 0.8442724
0.2251026 0.1486858 0.7164758
0.0681648 -0.07259897 0.9346493
0.2371487 0.1750102 0.6254683
0.2646943 0.150505 0.6411405
0.01828421 0.06771541 0.492535
0.1420367 0.1880008 0.6144801
0.1152624 0.07913584 0.9070563
0.1867089 0.1484416 0.7207524
0.1330432 0.1135011 0.8230241
0.2660454 0.1523938 0.6477209
0.1728358 0.1966285 0.57508
0.2545993 0.08820884 0.8484358
-0.150495 0.2329382 0.5262414
0.01943166 0.1334534 0.3877282
0.1670758 0.1149772 0.8282018
0.06845249 0.1002768 0.4080933
0.1599167 -0.09463547 0.860653
0.212594 0.04299735 1.019157
0.1741421 0.1187384 0.8302541
-0.3230346 0.1948421 0.6261032
0.1888652 0.07856928 0.9182899
-0.3256847 0.02647208 0.6117433
0.1741316 0.132775 0.8032286
0.1494313 0.2126014 0.5395203
0.2403081 0.1885218 0.5615997
0.04933373 0.2311691 0.5043635
-0.0007657581 0.2363787 0.5251114
0.1165631 0.2049312 0.6059286
-0.01064645 0.06733614 0.5008755
-0.1803041 0.2312656 0.5232657
-0.00506237 0.1366381 0.3823999
-0.1532039 0.2438763 0.4573123
-0.1319393 0.2574625 0.4584651
-0.3429806 0.1250661 0.5682762
0.2249084 0.1571861 0.6927989
-0.3972555 0.2007857 0.6131037
0.1911989 0.1342924 0.7657278
0.117147 0.1672529 0.709735
0.2716928 0.1471798 0.7271042
0.2640486 0.1610311 0.6850323
0.1990303 0.2003587 0.5584517
0.2525544 0.190201 0.5371154
0.2535449 0.1862062 0.5452881
0.2741894 0.1645684 0.6128681
0.06090225 0.2013178 0.6430959
0.08618841 0.1572341 0.777508
-0.244488 0.2065422 0.6132681
-0.1912736 0.2204975 0.5481635
-0.4712892 0.09555799 0.6210104
-0.4579121 0.1944678 0.6525856
-0.4732482 0.1874183 0.6409108
0.230511 0.1801784 0.5956327
0.1381118 0.2148485 0.5412636
0.1615239 0.2009611 0.5719856
0.06020987 3.002537e-05 0.4768321
0.03645976 -0.03658124 0.4919005
0.03677282 0.0751939 0.4614915
0.03497714 0.07650369 0.4670353
-0.03918369 0.2415319 0.4294615
0.09979636 0.1983331 0.590651
0.2092433 0.181693 0.62361
-0.09449444 0.2429915 0.4492059
0.1575852 0.1459413 0.7307507
0.2331237 0.1967208 0.5280179
-0.3660898 0.2268919 0.5592561
-0.3749259 0.1444271 0.7131971
0.1117205 0.1798186 0.6287515
-0.3346917 0.07297324 0.6138803
0.05843075 0.1753251 0.7460351
-0.4462026 0.06319464 0.5549914
-0.1916011 0.2372625 0.5080638
0.1585964 0.05402857 0.979739
-0.3638026 0.1773771 0.7366197
-0.312131 -0.001618505 0.5743954
-0.05768691 0.2278583 0.4741126
0.2539526 0.1930686 0.5527701
-0.1593103 0.2430767 0.4766188
0.1678925 0.2131803 0.5309834
0.1804011 0.2071163 0.5400347
-0.2414375 0.02183908 0.8633983
-0.3316106 0.250121 0.5059173
0.2022293 0.2083727 0.520162
0.03195615 0.1413013 0.3808286
-0.06398964 0.05222852 0.5366179
0.2813385 0.05765257 0.8702608
0.2708856 0.1243077 0.7770187
-0.1784846 0.2595018 0.463484
-0.3709716 0.2318848 0.5416307
0.2468788 0.1296003 0.7642038
0.08376314 0.1981131 0.5945712
-0.2768202 0.2214239 0.4854027
-0.2017294 0.2421421 0.4978967
-0.02055413 -0.01562636 0.4962585
-0.2470897 0.2339097 0.5283454
0.03289101 0.06773403 0.4873504
0.181798 0.2142513 0.5216935
-0.0006829817 -0.03784989 0.4941109
-0.3864312 0.1891666 0.6659577
-0.01266666 -0.03868602 0.5103591
0.04618035 0.06507482 0.4719177
0.2506985 0.02128061 0.773055
-0.1812783 0.2305896 0.5297205
0.2649738 0.140224 0.7512025
0.09993549 0.2255729 0.5176414
-0.0271828 0.2359137 0.5036741
-0.1667555 0.224897 0.5341882
-0.3134409 0.03882348 0.5562823
0.07049781 0.05078962 0.3890569
-0.3534752 0.09253898 0.6778815
-0.1451367 0.1494922 0.6524275
-0.008108766 0.1347019 0.3810743
-0.02327237 0.2414123 0.4979928
-0.3603038 0.2353568 0.5027471
0.1157844 0.2128495 0.5239698
0.1884402 -0.09436762 0.63146
-0.3689908 0.2139601 0.5055054
0.2098511 0.1907113 0.5736187
-0.4102428 0.1342523 0.7928675
0.03204143 0.05422298 0.4857332
-0.2164056 0.05000645 0.861981
0.2078999 0.1590255 0.6765429
-0.1297045 0.2676009 0.4303441
-0.2670854 0.03311816 0.8541122
0.1037855 0.04464037 0.9605483
-0.01897401 -0.02573708 0.4941941
-0.2425729 0.2586628 0.4644288
-0.2056559 0.2366978 0.4725884
-0.4412401 0.2022785 0.6242437
-0.4783332 0.1899205 0.5866641
-0.2376354 0.2147542 0.6011984
-0.3643893 0.1791964 0.698297
0.09239858 0.1810308 0.6406356
0.2384257 0.1643591 0.6716484
-0.4667412 0.09460685 0.6169185
0.1285896 0.04456009 0.9725562
0.01684141 0.1310805 0.4437536
-0.3776991 0.03225503 0.7261323
0.1238411 0.2132521 0.5445863
0.01743768 0.03803081 0.4881112
0.02354378 0.1372936 0.3772853
0.1187575 0.2246464 0.5117754
0.004574209 -0.03734041 0.4630225
-0.1591751 0.2444451 0.4878361
0.02406896 0.1417765 0.3888293
0.2068578 0.1778293 0.6358606
0.2116953 0.09162917 0.8598679
-0.3497248 0.2143496 0.4901231
0.04897864 0.1280242 0.3996522
-0.4212873 0.03136077 0.5491677
0.1818982 0.1797739 0.6333334
-0.3719959 0.1559236 0.8185201
0.1582118 0.135304 0.7566039
0.1337291 0.1782157 0.6349763
0.1385416 0.08106632 0.9092632
0.108419 0.2160833 0.5632287
-0.1706028 0.2511919 0.4327706
0.165324 0.09378008 0.8659988
-0.4476824 0.06299429 0.5559594
0.1175104 0.1213548 0.8525917
0.06617846 0.06652178 0.9749245
-0.07569108 0.2224899 0.4600225
-0.3818397 0.2371907 0.5371118
-0.1642004 0.252758 0.4665883
0.09238549 -0.03699441 0.9025834
-0.006383346 0.1312563 0.3956068
0.02527625 -0.07738924 0.8176686
0.1896061 0.1571705 0.6921697
0.01071891 -0.03089451 0.4765678
-0.04390511 0.2363396 0.4972056
0.08070288 0.1286261 0.7727963
0.006416429 0.1079068 0.5218836
0.08357674 0.1985698 0.595421
0.2531015 0.1787572 0.5416783
0.2028208 0.1871858 0.6117315
-0.2563501 0.2269081 0.5474327
-0.1642292 0.2408595 0.4930751
0.09847768 0.066971 0.9222635
0.1463523 0.1728263 0.661607
0.03285842 0.06793322 0.4875815
0.08224857 0.2157795 0.5385145
0.08998351 0.2127805 0.5564247
0.0873334 0.02234201 0.9618874
0.01929126 0.01087097 0.4841362
0.06759307 0.09530141 0.4204198
0.09031145 0.2120328 0.5555469
0.1289335 0.04382462 0.9645369
-0.3684779 0.2203313 0.489054
0.06726637 0.196691 0.5892123
0.172359 0.1775646 0.6370203
-0.4017993 0.02185047 0.5549948
0.042095 0.1330132 0.3849516
0.06218854 0.2150337 0.5490842
-0.1377859 0.2295054 0.5268285
-0.4727215 0.1866415 0.6426117
-0.4557559 0.193893 0.6506115
0.0998598 0.2249395 0.5164971
0.1968836 0.1936483 0.6065114
0.07030243 0.01208886 0.4726312
0.01069053 0.2326854 0.4719487
0.2600395 0.1776931 0.5875871
0.2312489 0.1953893 0.5521766
0.185358 0.04876547 1.014384
0.18629 0.194957 0.5934458
0.1733731 0.1935786 0.5916185
-0.2011783 0.254714 0.4163682
0.01020081 0.09709149 0.5124988
0.1050467 0.1911664 0.6172664
-0.1952854 0.2609045 0.4323419
-0.3154818 0.04482907 0.5843332
0.1795471 -0.07653307 0.7813441
-0.2510871 0.2569205 0.4725357
-0.2875402 0.2386238 0.5205429
0.248601 0.1865356 0.5732059
-0.1173267 0.09099344 0.4765142
-0.3289782 -0.007797861 0.6229023
-0.2537539 0.2434506 0.4597704
0.04669662 0.03931783 0.4789328
-0.2350341 0.2461032 0.500002
-0.1360247 0.1730846 0.6797572
-0.2318837 0.2403639 0.4765414
0.2104489 0.1520545 0.6907642
-0.01750212 0.135416 0.3860135
0.2617472 0.1822238 0.5424289
0.2635575 0.09952507 0.7697871
-0.005971368 0.150066 0.3897328
0.2806357 0.1287345 0.7458862
-0.2197412 0.2300822 0.3833258
-0.1595235 0.2273739 0.5361538
-0.07576609 0.1335497 0.4149781
-0.1687401 0.2266594 0.5371038
-0.1290871 0.1647265 0.4657224
0.2373744 0.140408 0.7519953
0.09766886 0.01128491 0.950358
-0.3191592 0.205355 0.6017675
-0.3609938 0.1396049 0.7048154
0.03459585 -0.03654848 0.4826785
0.2192397 0.1827923 0.623421
0.1569688 0.2038287 0.5726184
0.05821852 -0.01219056 0.4636098
-0.361159 0.2146307 0.5295746
-0.3423369 0.02532708 0.6159657
0.2949543 0.1008246 0.8589606
-0.0211394 -0.01561952 0.4982091
-0.4057583 0.2165952 0.5861251
0.1363815 0.2197532 0.523598
0.1653616 0.1365616 0.7490588
0.05267795 0.1611834 0.4502539
0.0460001 0.2038097 0.4900525
-0.1281095 0.2719591 0.4185366
0.07631305 0.06184993 0.3781269
0.03364057 0.07803279 0.4717307
-0.1333992 0.268397 0.4291897
-0.1583407 0.2752955 0.415786
-0.04646616 0.1533724 0.3914976
-0.196187 0.2679053 0.4271835
-0.2547744 0.03179073 0.8314143
0.09566634 0.2026496 0.5684534
0.08033727 0.04120358 0.9460846
0.1767795 0.1669478 0.6690327
0.05436399 0.06938771 0.922209
0.1778175 0.1239996 0.7865551
0.2023544 0.1912512 0.5783907
0.1612387 0.1978597 0.5870461
0.1196909 -0.05100182 0.9479552
0.009004516 0.2178793 0.4950354
-0.4309085 0.07486431 0.8729346
-0.02261637 0.003457465 0.4948829
0.08663014 0.1890029 0.6180048
-0.2894413 0.239932 0.5222784
-0.2179284 0.2506627 0.4664648
0.1702193 0.1974514 0.5843457
0.2572916 0.1935276 0.5325029
0.230168 0.1797492 0.5943292
0.145879 0.03224497 0.9789264
0.1804483 0.01567761 1.093559
0.2360207 -0.003238094 0.7000874
0.1380897 0.1494042 0.718742
0.05890356 0.01127408 0.4737929
-0.02188513 0.1362728 0.3919194
-0.3336573 0.1632862 0.7125626
-0.000845579 0.1378402 0.3851239
0.09140424 0.06244656 0.9508503
-0.2485349 0.2581255 0.4639381
0.1694857 0.1309613 0.7595398
-0.2381772 0.243648 0.4987129
-0.1524993 0.2453151 0.4834121
0.1364579 0.219439 0.5227776
-0.1089921 0.2593632 0.4562307
-0.1014373 0.2505358 0.459891
-0.2284322 0.1967379 0.5312509
-0.2166797 0.2726689 0.4238356
-0.1304287 0.2549661 0.4567645
-0.3320014 0.2517255 0.4899948
0.1472549 0.2100925 0.5347439
0.0717144 0.2072103 0.5748615
-0.4710002 0.03854748 0.5556172
-0.1119636 0.2565812 0.4577142
-0.4974175 0.03922878 0.5779749
0.02930141 -0.04103766 0.5083469
-0.1181178 0.2594423 0.4723709
-0.05614187 0.03291916 0.5211332
-0.1769563 0.2565501 0.4755143
-0.4163772 0.09463651 0.5280139
-0.5796105 0.1263001 0.6742774
-0.2626998 0.2496939 0.4759612
-0.4680709 0.1540501 0.8301923
-0.2585473 0.2393725 0.4961262
0.1560805 0.1659169 0.6782711
0.2510223 0.08566098 0.8651488
0.1941347 0.2010968 0.5623667
0.1637408 0.1264941 0.783365
-0.336974 0.2016223 0.6419975
0.07855885 0.04320073 0.9732333
0.1477156 0.1473669 0.7248049
-0.2953502 0.2663538 0.443371
-0.1643612 -0.08286078 0.8907498
0.08984873 0.001267929 0.9151692
0.1867386 0.1149567 0.833654
0.1031397 0.1741533 0.6429044
0.06755956 0.03225426 0.4785797
0.2207108 0.1581845 0.6855379
-0.2379158 0.2080822 0.5972939
0.1497455 0.1204063 0.7884983
-0.3566921 0.1974737 0.6305289
0.09057487 0.1642435 0.6885329
0.02745302 -0.06140652 1.116437
0.121416 -0.002772201 0.9512517
0.1444581 0.09081095 0.8852443
0.02019725 -0.06729352 1.184656
0.1980835 0.157218 0.7263674
0.08631332 0.192652 0.6082292
-0.3436527 0.08998105 0.6677451
0.2165718 0.1252148 0.7839661
0.1529108 -0.01340664 0.9637166
0.1275678 0.1270693 0.786001
0.114948 0.1500539 0.7455364
-0.4225101 -0.03757242 0.8514219
0.2492886 0.05048859 0.9683929
0.1828034 0.1246244 0.7877638
-0.3613054 0.1838418 0.6832467
0.09725336 0.1908748 0.6208482
0.1860912 -0.004936761 0.8387141
-0.3170631 -0.05497696 0.8861571
0.2559469 0.1497091 1.457977
-0.383361 0.2101542 0.5944442
-0.2553656 0.0320084 0.8275303
0.07717961 0.1415433 0.8268752
-0.2132346 0.2311786 0.4874037
0.05309176 0.2305598 0.5053258
0.02208618 -0.03771033 0.4942461
-0.418721 -0.03053817 0.9224778
0.2417979 0.1009823 0.8448279
0.2255416 0.1107223 0.8286777
0.2745722 0.1276261 0.719969
0.2451382 0.1508581 0.7164517
0.2219656 0.1761284 0.6414067
0.08922297 0.1753551 0.7146482
0.09929403 0.2130837 0.5472891
0.2515597 0.02307251 0.7865969
-0.2153936 0.2373748 0.5158655
0.01332927 0.1384453 0.3843035
0.001581872 0.1391585 0.3835997
-0.409928 0.03973515 0.7219415
-0.2415523 0.01412828 0.8586612
-0.3020507 0.1870467 0.7169036
-0.288305 0.142345 0.9167036
0.1798043 -0.07590922 0.7996754
0.1918365 0.1685667 0.6645674
-0.3323648 0.01885375 0.5420533
-0.4123526 0.241484 0.5219219
-0.3945577 0.2239543 0.5198632
-0.3486323 -0.02673751 0.6769701
0.08191077 0.1039816 0.8504556
-0.2482131 0.2346888 0.5293249
0.2335449 0.1468241 0.7204685
0.1156846 0.2188793 0.5341782
-0.1446478 0.2342088 0.5073808
0.09205341 0.122619 0.8813048
-0.4181035 0.04014166 0.7314574
-0.0359753 0.2386398 0.481095
0.009527537 0.2146459 0.4864473
0.05950471 -0.01611644 0.4784601
-0.1311013 0.2539813 0.468703
-0.3396403 0.0149145 0.6489724
0.2506318 0.1008236 0.8642464
0.04701263 -0.01753434 0.4746903
0.2244251 0.1397934 0.7423567
0.008661149 -0.02740569 0.4943416
-0.3122456 0.2113457 0.5914748
-0.1016516 0.2575333 0.4520128
0.06189173 0.2098455 0.5706674
-0.3209561 0.01097939 0.5592189
0.05837218 -0.008872991 0.4747449
-0.2850953 -0.009987555 0.8547587
0.03800181 0.1314147 0.4001129
-0.3196399 0.2087902 0.603271
0.235881 0.166197 0.6427414
0.07794174 0.0539808 0.3742195
0.1807747 0.004407752 0.8237252
-0.3350083 0.09491431 0.5560824
-0.4321761 0.2024585 0.6257421
-0.01041521 0.08689538 0.5127095
0.1117481 0.2074407 0.5630312
-0.1412198 0.2412709 0.4901551
0.07704759 0.2310824 0.4962951
0.02379842 0.1352278 0.3805433
-0.342438 0.1253887 0.56833
-0.06612996 0.1037879 0.4895408
-0.2726811 0.0435724 0.9108374
0.06772175 -0.05250582 0.9142921
0.26522 0.187554 0.5546615
-0.3829577 0.2044295 0.6126128
-0.4587818 0.2172679 0.5898646
-0.08423352 0.1070265 0.485798
-0.01065679 0.05245172 0.4989708
0.2097304 0.1239124 0.8000303
-0.01577421 0.1351584 0.3918295
-0.07186805 0.03007309 0.4876366
-0.2174812 0.2612289 0.4525824
-0.1906819 0.2648301 0.4486082
-0.0002784129 0.2554702 0.5035647
0.03296767 0.2294688 0.5113488
0.139158 0.1745715 0.6589001
0.06004013 0.04604742 0.4802406
-0.3693359 0.123924 0.6658306
0.1074586 0.1877388 0.6197333
-0.2941518 0.1962823 0.6317055
0.03457854 0.2217576 0.4904658
-0.1417144 0.2460386 0.4589673
-0.1506788 0.2582262 0.4544736
0.02215997 0.2403084 0.4665724
0.1238573 -0.1304538 0.9849038
-0.02593615 0.2385611 0.4835557
0.1585635 0.2097299 0.5466926
0.2454683 0.1410159 0.729108
0.09152123 0.1674782 0.6779803
0.08719884 0.06297038 0.4229777
0.2548956 0.1935544 0.5620229
0.2090912 0.1738891 0.6443582
-0.291734 0.1800479 0.7105562
0.2737834 0.1465341 0.7123738
-0.1462963 0.2444383 0.4798093
0.1676948 0.1579156 0.6925024
0.1244295 0.2235829 0.5165076
0.09719082 0.218492 0.5538205
-0.2875506 0.2639164 0.4758863
-0.253664 -0.003770749 0.9636912
-0.3730306 -0.02824653 0.8474109
-0.123385 0.2507886 0.455367
-0.1530047 0.2614257 0.4564017
-0.007449586 0.2931287 0.5588156
-0.01020037 0.009365323 0.4928497
0.1209917 -0.0559059 0.9054959
-0.3283863 -0.01836607 0.5593418
0.05513744 -0.03367433 0.4828432
0.0733588 0.2210204 0.5378411
0.03790157 0.1281667 0.3913132
-0.1242048 0.2573317 0.4575599
-0.1307061 0.2579906 0.4635725
0.1462384 0.2085006 0.5601361
0.07145244 -0.09066599 0.914547
0.07338078 0.2088211 0.5545837
0.01329971 -0.03707799 0.493351
0.002546104 0.1426721 0.4879452
-0.2553648 0.2315529 0.5393291
-0.3236216 0.06431842 0.6096014
-0.4182667 0.1817415 0.679838
0.1335456 0.1806899 0.6394306
-0.381748 0.2039588 0.6116548
0.04546763 -0.004314889 0.4744596
-0.01731875 0.1353492 0.3856059
0.07903984 0.04205182 0.4460394
0.2471845 0.1745816 0.6447244
0.1653417 0.1183656 0.8073715
-0.2297966 0.2866066 0.3878574
0.07044213 -0.07806876 0.9208116
0.04161237 0.1040243 0.4202128
-0.219532 0.2747654 0.4258967
0.1789986 0.06739647 0.9518585
0.05445929 -0.03483769 0.4941736
0.2721645 0.1565506 0.6502875
0.2153468 -0.01791688 0.7066517
-0.1997142 0.2664689 0.4365374
0.156216 0.1676102 0.6704558
0.05443936 0.2440003 0.4837681
0.1727643 0.207209 0.5454847
-0.004417273 0.1374101 0.3901114
0.04593413 -0.003952958 0.4746176
0.04505938 0.01160629 0.475528
0.02083194 0.2301294 0.467921
-0.01528422 0.23761 0.477578
-0.06582298 0.138238 0.4081729
-0.2454579 0.1075886 0.8868237
0.1674047 0.09635925 0.8720763
0.1408254 -0.07414214 0.900193
-0.1169581 0.2402235 0.4785361
-0.1392573 0.2482119 0.4864681
-0.0001431079 0.1363697 0.3839831
0.195857 0.1312526 0.7663713
0.05515491 0.202785 0.4924437
-0.1641898 0.2524252 0.4665133
0.1220469 0.1713406 0.6613855
0.05517805 0.0141602 0.4740641
-0.3063929 -0.01024898 0.8944991
-0.2316627 0.2669 0.444645
0.08924439 0.2033027 0.4767511
-0.008247263 -0.01808239 0.4897364
0.01310974 0.2132836 0.4449246
-0.03247872 0.2666138 0.5014919
-0.279602 0.1931176 0.4232947
0.1110468 0.1879473 0.6489848
0.1042493 0.2139081 0.5420673
-0.05748723 0.227649 0.4739855
-0.4368093 0.0954769 0.5594938
0.06604324 0.1964288 0.5655763
0.1130259 0.1892479 0.6122021
0.07227028 0.01601722 0.477765
0.1001768 0.2241943 0.5153979
0.1560616 0.1633714 0.7086346
0.002713622 0.0909737 0.514929
0.02544237 -0.03781648 0.5039167
0.05444873 0.2253156 0.5051757
0.1936454 0.2046974 0.521073
0.2067847 0.1828921 0.5912566
0.07778758 0.1966766 0.5877576
0.1287924 0.1945477 0.5985081
-0.1083348 0.2324942 0.4890438
0.1765532 0.1666908 0.6683401
0.1476697 0.1663983 0.6748641
-0.3366879 0.05248076 0.5540282
0.1319848 0.2159252 0.5339676
0.04664252 0.1249071 0.411748
0.1534669 0.1858933 0.6257617
0.05996065 0.003535779 0.4746406
0.195928 0.1910104 0.6012029
-0.3773524 0.2312998 0.5301479
-0.05111197 0.1299351 0.3978413
0.03266577 0.1332743 0.3930427
0.252554 0.1604578 0.6869146
-0.1919926 0.2522177 0.4634525
0.06266925 0.2200553 0.5468913
-0.4336008 0.0632344 0.5476696
-0.2216641 0.2659038 0.442259
0.1467383 0.2065032 0.5559791
0.06946263 -0.05911721 0.9164185
-0.08451767 0.2278015 0.4426005
0.07300612 0.2157629 0.5545532
0.210812 0.1991486 0.5473378
0.1782916 0.1919483 0.5947781
0.2001972 0.1966845 0.5897938
0.1440246 0.2068953 0.5406577
0.2148594 0.1837551 0.5926369
0.1839492 0.1665105 0.6438469
-0.2734905 0.2415372 0.5114847
0.09329734 0.007667123 0.9438965
-0.1657114 0.2309335 0.5241616
-0.007209155 0.1386229 0.3862645
0.1824537 0.1827617 0.6264541
0.1000257 0.1985984 0.5908325
0.07831556 0.0314643 0.9480889
-0.1309226 0.253675 0.4682677
-0.248611 0.2607751 0.4402325
0.1950959 0.206232 0.5406619
-0.1693302 0.2269708 0.5378354
-0.304163 0.2535994 0.4829291
0.1160188 0.2154485 0.5280357
-0.2940848 0.175922 0.682301
0.1391087 -0.1050715 0.9309136
-0.3498208 0.1880366 0.6460733
0.1340812 0.06227317 0.95381
0.1881007 0.1355685 0.7542425
0.1901855 0.1582495 0.6967284
